-1.58000,5.71999,-125.955
-9.50000,-12.5400,-38.6897
-13.7400,2.41999,58.5218
12.3799,-7.66000,105.333
-2.22000,-16.0000,-128.920
4.17999,-14.7800,127.004
-11.0400,3.25999,148.113
14.7599,21.5999,-177.402
-3.66000,25.8599,-143.564
24.4199,21.2199,-44.1870
-11.8400,4.09999,169.245
2.35999,-7.18000,173.284
-4.94000,24.2399,-21.9273
-3.40000,19.6399,-168.124
-7.40000,19.1999,79.2151
-3.22000,23.1599,-4.17392
-7.70000,25.5799,109.394
11.1199,-12.0600,104.451
-7.30000,-8.24000,165.266
12.5399,21.4999,-21.1773
-7.74000,21.9999,-82.5333
4.27999,4.97999,-133.967
-4.00000,-1.96000,-83.6864
-6.08000,-3.52000,-79.7084
-2.00000,-12.1400,131.815
5.45999,-7.82000,-105.775
8.71999,-11.2200,129.566
5.47999,-7.06000,93.7920
4.57999,0.23999,-126.820
-8.66000,-10.9600,-135.991
-6.26000,-4.30000,-171.231
-2.08000,6.13999,22.1559
11.7599,13.4599,-85.5980
8.03999,16.6999,-151.961
0.11999,1.27999,-124.584
-2.52000,-2.30000,-8.57044
-3.80000,-0.52000,121.434
9.09999,5.29999,-65.9683
13.6799,9.41999,150.438
5.61999,-8.60000,-79.9784
-8.14000,2.33999,-150.319
-9.54000,-4.50000,25.4933
1.77999,9.23999,-73.6145
-3.56000,19.9199,1.69359
15.2999,18.1399,38.1028
3.23999,22.0999,11.1786
20.3999,22.1399,-84.5493
-3.60000,8.99999,160.162
-0.92000,8.39999,-85.7974
-13.0600,20.1599,175.228
6.53999,25.9599,157.943
5.09999,-10.1000,-43.0314
13.5199,18.8999,72.1905
0.95999,-10.1600,47.4072
6.83999,11.4199,-24.0240
-3.02000,4.83999,165.667
-3.02000,21.0599,176.849
8.67999,-8.36000,-27.3546
-3.50000,-17.0200,-9.48520
-5.88000,9.61999,-58.5765
-12.7400,19.8599,19.1437
-3.40000,21.8599,-71.1072
12.4999,-6.34000,115.037
2.97999,-14.1200,2.31139
5.57999,-1.92000,-170.550
-4.00000,-0.48000,156.486
-2.96000,3.21999,-161.573
4.85999,-2.08000,12.4940
-7.94000,13.7399,-137.559
-3.48000,-12.2800,-169.105
9.29999,-4.90000,-46.9041
8.31999,8.25999,39.9576
7.87999,-2.16000,-53.8988
-6.42000,11.4799,-97.3670
-10.1400,19.7399,-160.265
1.23999,22.9199,-150.437
0.09999,-16.0000,138.967
0.97999,-8.20000,23.9531
-3.42000,-7.12000,-41.2804
2.95999,-11.2600,27.0131
2.29999,-13.2000,115.750
-8.60000,3.41999,-47.7885
6.39999,-9.26000,50.6481
-10.6800,-0.90000,87.9916
-13.9800,5.95999,175.230
3.23999,22.0999,11.1786
-0.70000,-15.8600,-4.62772
6.91999,20.3599,120.336
11.0799,17.6199,-174.413
-11.2200,11.0199,81.0601
-8.16000,15.6399,-85.9974
11.6599,18.2999,113.669
9.91999,4.77999,-113.853
-12.3000,16.9999,-117.121
6.45999,17.5599,-18.5362
5.83999,7.93999,75.1990
-10.1200,-8.40000,72.7231
18.1799,-13.6600,-163.921
5.75999,-11.0600,120.272
2.77999,-9.94000,-14.6086
2.63999,17.5199,-56.7782
2.97999,-8.86000,173.558
9.79999,-9.82000,-56.6389
-8.60000,13.1599,-58.4009
10.6799,3.89999,154.520
10.1199,-8.34000,-96.4132
5.39999,0.05999,1.96402
2.81999,5.53999,-72.0919
8.67999,25.9399,-176.047
-4.82000,1.73999,79.0463
4.11999,22.5799,-139.219
0.33999,-3.90000,7.21103
-0.04000,21.4999,139.354
2.55999,-2.92000,-124.166
21.4199,-10.0800,74.5098
-4.60000,-5.64000,-59.8304
-8.20000,-17.5200,28.5259
-8.78000,-5.66000,-57.0415
-9.38000,-3.48000,178.549
3.79999,4.51999,95.7855
-7.94000,13.7399,-137.559
5.21999,2.13999,-144.530
8.69999,8.43999,76.6607
-13.0600,2.83999,124.557
-8.76000,25.8799,-111.665
4.69999,2.59999,179.973
5.17999,24.6399,115.595
8.41999,-7.38000,16.4049
-6.88000,18.7999,122.447
-4.84000,0.71999,-21.9022
-11.2200,11.0199,81.0601
8.49999,-7.54000,-16.3366
9.43999,1.13999,143.973
-9.06000,-3.54000,137.542
5.59999,-5.56000,11.6605
-10.9000,18.9799,64.1889
0.69999,-8.50000,-63.0616
-8.90000,-1.18000,-123.002
8.51999,16.9799,-32.1045
-5.34000,5.23999,41.7381
10.9999,-0.12000,-139.229
-7.08000,9.45999,131.679
-7.50000,-6.00000,-53.0920
-9.04000,5.19999,36.6146
-1.20000,20.1199,-24.2493
10.3399,-15.6200,143.523
-14.8200,0.13999,8.54343
11.6999,10.0999,104.127
-6.72000,-3.66000,-108.833
-9.80000,-14.5600,77.2746
-0.58000,9.85999,112.903
-1.04000,12.9799,101.115
-14.7400,4.35999,-162.410
-7.94000,14.5799,-119.865
6.97999,5.87999,-32.8902
-11.7000,13.9799,-89.4479
7.03999,7.19999,-133.550
-4.82000,18.0999,-109.734
-1.14000,21.7399,55.2335
1.81999,-13.2600,-6.56866
-2.70000,-9.56000,-139.401
14.4799,-13.7600,135.338
10.5199,-13.6200,69.5034
7.69999,-2.68000,-93.7370
7.21999,-5.28000,109.123
-7.36000,15.1799,120.759
-4.68000,-1.24000,-17.4609
-3.74000,-3.10000,-96.3661
-8.46000,21.3599,40.7917
-2.34000,1.63999,-63.1516
8.19999,-6.48000,160.645
-6.44000,20.0199,-137.873
8.13999,10.8199,-1.43989
6.25999,12.7599,-49.6748
1.53999,-15.0800,75.8031
13.9799,-14.2600,117.367
-2.94000,14.3199,-131.009
1.85999,25.0999,-149.846
1.59999,17.2999,-102.050
8.79999,0.31999,-94.7868
4.69999,11.7199,71.9211
4.27999,4.97999,-133.967
-8.44000,-2.32000,-32.9988
-1.86000,23.5799,97.8626
6.27999,-12.9000,90.5485
8.65999,-14.0800,-31.0102
-2.68000,20.7599,127.101
5.47999,-7.06000,93.7920
8.15999,20.1399,-16.7227
-0.20000,-13.6600,-3.35163
5.33999,2.27999,58.2005
-3.40000,23.7399,-45.1742
-5.88000,25.1199,-83.4121
7.91999,6.87999,-106.871
-6.34000,25.3999,91.1487
-2.86000,23.6399,-54.6698
14.8199,17.0599,78.9938
-3.40000,23.7399,-45.1742
5.97999,-5.56000,144.522
8.61999,-13.7000,-10.2825
3.87999,-13.9600,17.8489
-13.9600,10.9199,-74.3337
8.47999,-14.8200,15.4551
3.87999,14.0199,-69.1182
-10.6600,-3.28000,155.666
-1.60000,4.13999,-69.2749
6.99999,-5.30000,157.453
-13.4000,12.6999,-42.6648
-8.86000,-5.84000,-12.0322
-8.80000,-3.40000,-10.0378
1.71999,4.47999,-127.268
-9.12000,1.25999,140.331
-7.92000,-1.18000,88.7353
15.8399,21.2399,147.145
7.05999,-4.80000,-59.1613
-12.4800,-0.34000,107.354
13.2599,-10.3400,138.595
9.15999,7.33999,-3.99895
-13.4400,12.1799,-48.9585
-6.56000,23.5399,-13.0196
-3.32000,22.7799,-108.826
2.57999,-5.66000,-144.732
-11.4600,5.93999,-161.116
1.81999,-13.2600,-6.56866
-8.30000,-7.02000,-46.8956
15.5999,-6.26000,-178.978
6.11999,-2.88000,19.4554
3.21999,21.4199,-81.2108
-1.11758,-12.0000,-48.3834
7.41999,16.4799,-101.931
0.99999,3.63999,-48.1223
-9.54000,-4.50000,25.4933
-6.36000,-5.30000,-80.3457
-14.0400,9.71999,0.59107
-6.24000,24.7799,-62.2991
-2.96000,-8.64000,-125.476
14.6199,22.4199,5.36872
3.71999,-14.0600,113.061
-4.74000,-17.8600,78.1789
9.69999,-7.90000,111.726
-13.7800,15.2799,39.7708
9.55999,-6.82000,-123.557
-6.12000,-2.62000,176.375
9.59999,-16.8400,144.265
9.19999,2.01999,88.2100
7.43999,7.89999,-9.92897
7.37999,-10.3600,-71.9785
2.39999,-13.9600,170.344
-13.8600,19.2799,71.5606
-5.36000,-10.2800,132.806
10.0199,-17.1800,-65.7503
4.51999,16.6399,35.6196
-9.18000,-1.80000,71.0054
-1.22000,16.0999,-104.668
-1.64000,-8.34000,-169.010
-12.3800,-2.12000,-18.4938
9.65999,-2.26000,70.7734
8.19999,7.81999,58.2189
-5.94000,-5.52000,114.787
-10.2200,21.1199,140.072
-9.60000,4.07999,53.8449
8.87999,16.6199,-35.4718
3.37999,-6.12000,121.777
-12.6000,10.7199,-104.164
-8.60000,3.41999,-47.7885
-10.3800,24.3199,144.050
2.29999,-1.46000,60.7974
11.5599,-14.3600,-111.535
-4.86000,-8.66000,-120.273
2.33999,-14.9400,-164.315
-8.92000,23.4999,-49.0697
9.83999,9.53999,146.512
-6.68000,4.23999,-154.106
6.73999,-15.8400,35.6824
-0.92000,8.39999,-85.7974
-6.26000,-9.74000,21.8656
1.15999,-1.02000,22.0027
9.03999,-10.4800,25.1519
0.77999,4.75999,-8.60628
8.61999,1.73999,123.661
11.1599,4.67999,-140.687
-14.5200,8.71999,14.2970
2.47999,18.0599,146.874
-4.84000,22.1999,-48.4328
-8.50000,-11.3000,28.4754
-11.7600,1.03999,-71.6197
-4.16000,20.8999,75.7221
3.97999,16.5999,-154.164
-2.60000,-8.14000,116.362
8.41999,-0.18000,53.0268
2.51999,-13.3800,145.496
15.3999,15.3199,-108.129
-7.94000,-4.78000,77.9100
-6.62000,10.5199,55.4934
-9.88000,6.59999,140.681
15.1999,21.8799,135.872
-6.68000,-5.48000,165.978
11.1599,4.67999,-140.687
-12.9600,12.9199,109.405
3.11999,-17.4000,134.232
13.5799,-9.66000,-131.793
-7.74000,-2.28000,-2.18719
-9.48000,16.6799,-43.4082
13.7999,-13.8600,-23.3991
-3.88000,13.3399,-12.8250
-1.78000,-16.0800,137.493
2.41999,-3.32000,-171.012
1.51999,13.5599,47.9583
-2.72000,-15.7600,59.2648
-9.92000,18.7599,71.3268
-12.9200,17.7599,-83.1992
-7.18000,-14.1400,-87.2150
-7.62000,1.69999,-153.016
-12.3400,6.15999,18.1724
-5.66000,23.2599,-34.0477
0.17999,1.51999,138.661
6.49999,25.5599,9.56967
-8.84000,4.79999,36.7718
9.51999,5.47999,-73.8715
-4.74000,-11.2800,118.309
-7.26000,7.65999,-10.1926
-0.52000,-5.44000,-70.1092
-0.76000,25.9199,159.140
9.35999,3.51999,-130.294
10.6399,-2.98000,56.1896
7.99999,22.8399,-27.3296
-8.82000,3.73999,-26.3072
20.5799,-9.44000,59.9796
9.15999,-3.86000,125.315
-9.34000,8.23999,57.3532
12.9399,-8.20000,103.307
3.91999,23.7599,156.864
9.51999,-13.0400,52.2502
-14.8600,11.8799,-98.2003
-11.2200,11.0199,81.0601
3.83999,8.71999,72.8340
4.17999,6.63999,-71.1868
-5.64000,14.5199,173.204
-8.90000,-1.18000,-123.002
-9.56000,-9.18000,39.1291
-5.90000,-12.1400,139.177
3.39999,-11.3200,-35.3293
5.41999,8.11999,83.3839
-6.80000,9.41999,96.5790
4.85999,16.7599,-11.6634
-3.48000,14.2599,-43.9054
11.1199,18.5399,-68.0872
-11.4600,5.93999,-161.116
0.09999,19.9199,-25.2228
10.5599,22.1799,87.8276
-5.98000,-12.2800,-68.1353
-3.26000,8.25999,-141.238
0.87999,17.9799,116.890
5.45999,-3.58000,-147.106
-2.30000,5.51999,-105.226
6.29999,25.7399,121.170
5.71999,-5.96000,115.253
-8.50000,-6.90000,-9.77593
-8.72000,21.4599,-170.830
-8.38000,-9.46000,-55.7222
-1.82000,-13.7000,71.8245
11.1599,1.69999,58.3808
10.6399,18.9799,-100.691
6.71999,-3.92000,-32.9866
-9.06000,-12.0200,-16.5440
-0.04000,21.4999,139.354
-8.70000,17.7999,-90.5790
0.43999,9.87999,-138.091
4.27999,-0.58000,-179.177
5.59999,-7.10000,-134.357
2.93999,17.8799,141.851
-0.46000,-13.1000,164.437
1.41999,0.75999,174.072
-10.6000,9.97999,103.791
-5.94000,-14.8200,-157.333
13.9999,23.4799,7.96404
-14.4200,12.7199,-4.69956
3.43999,-14.9600,30.7608
-7.34000,6.93999,87.4467
4.19999,-9.96000,-121.029
8.37999,9.91999,-115.432
0.99999,-8.70000,-101.677
-8.30000,24.6199,-49.6375
1.49999,-11.2400,105.824
5.87999,19.4399,138.286
3.45999,3.39999,174.388
-2.24000,13.0399,-22.2977
-6.32000,-2.80000,92.6305
6.39999,-9.26000,50.6481
-6.92000,-12.5800,-149.992
-6.84000,-15.8400,-54.5831
-14.8800,-1.94000,-22.0510
-0.44000,7.83999,50.5231
7.11999,-10.7400,-43.3200
-8.50000,-6.90000,-9.77593
17.7799,9.63999,-174.978
-8.32000,25.3999,-117.131
-6.06000,-16.9400,109.629
0.91999,14.4999,163.687
17.1799,-9.36000,45.9946
-3.06000,20.1399,13.9672
-8.28000,1.83999,149.864
-3.30000,23.2999,60.5539
-5.48000,-4.40000,-58.1759
-10.0000,14.7199,165.060
12.2199,-6.46000,-179.856
6.57999,-4.08000,-28.0436
5.65999,-3.84000,171.931
17.2999,-6.98000,7.06100
1.25999,-15.1200,-15.1528
-13.4000,20.2399,-166.615
11.6399,14.3599,-99.6782
-1.54000,-16.3600,-136.371
-2.10000,24.6799,70.2008
-9.40000,-12.9800,-136.373
3.11999,-17.4000,134.232
6.57999,-4.08000,-28.0436
6.19999,22.4999,136.355
-8.78000,16.9999,-177.181
-4.10000,-5.56000,-82.2442
-6.22000,4.15999,24.4358
8.13999,10.8199,-1.43989
-9.92000,16.5999,68.9270
-7.64000,-1.22000,113.832
9.77999,2.83999,83.6213
3.95999,1.03999,-110.518
7.71999,20.0399,-134.688
-8.80000,-12.0800,111.978
8.13999,-11.2200,175.141
3.93999,-3.52000,168.014
4.31999,-12.8000,86.6727
2.59999,-7.38000,-96.4322
-6.06000,-6.52000,-67.4382
6.27999,-12.9000,90.5485
-0.96000,0.95999,43.9272
-4.74000,-0.20000,-87.0863
12.9599,17.7599,127.946
-0.94000,-6.58000,-74.4385
-2.98000,-10.9000,41.6317
-3.82000,21.1799,-157.429
3.45999,7.27999,-79.6896
7.91999,6.87999,-106.871
5.73999,-3.64000,60.7945
12.8399,-5.84000,106.182
8.73999,-6.60000,-90.5662
10.2599,-9.60000,140.693
10.9999,-0.16000,-115.478
-13.9200,5.15999,-10.2452
-8.30000,20.2799,148.516
8.91999,-16.4200,-107.350
9.91999,4.77999,-113.853
7.05999,-13.9800,145.530
-1.28000,10.3999,100.961
7.27999,9.57999,-150.478
-6.82000,1.37999,30.7452
-9.68000,-6.56000,-122.001
7.31999,23.6799,-127.573
-7.38000,1.35999,-118.714
6.89999,-13.4400,-84.6805
9.97999,15.8199,66.9386
-8.18000,16.8199,-137.290
2.29999,5.77999,-55.9296
8.51999,-4.50000,158.847
-0.94000,-6.58000,-74.4385
-8.60000,2.75999,179.345
7.13999,3.03999,-78.6100
-4.60000,-11.9800,152.547
-9.80000,-13.1000,111.506
-11.8000,15.4599,46.7803
2.97999,13.7399,33.1493
24.4199,21.2199,-44.1870
2.15999,-11.4200,-115.723
24.0799,22.2999,15.9509
8.19999,20.7599,12.7979
-0.04000,-14.8400,-95.3513
18.7199,-8.00000,118.552
9.43999,1.13999,143.973
-4.20000,-13.3600,61.2939
7.73999,-6.66000,-66.2174
0.85999,-13.5000,25.4683
5.29999,3.37999,16.5097
8.37999,9.91999,-115.432
-7.34000,-1.56000,146.060
-0.42000,-1.94000,-136.248
-11.5600,10.6599,-89.5783
-9.70000,11.0799,-18.5858
-0.34000,-0.30000,92.5061
-11.6600,14.4799,157.682
-8.58000,-6.00000,-83.0838
6.33999,8.97999,-102.948
-2.94000,14.3199,-131.009
-5.88000,1.61999,179.530
8.03999,-6.68000,14.9130
-4.74000,-11.2800,118.309
1.73999,-6.98000,26.0561
8.95999,-3.96000,-168.794
7.35999,-9.22000,59.8437
-6.96000,10.6799,-54.3534
2.59999,2.53999,-154.770
5.31999,26.2599,116.595
6.99999,-5.30000,157.453
9.47999,-5.60000,162.408
-8.60000,3.41999,-47.7885
-3.88000,5.81999,-82.7315
5.77999,18.5199,126.588
7.07999,17.9599,154.797
-2.12000,-12.7600,-123.857
-11.1400,11.8799,-46.6899
2.11999,-15.2400,155.145
-9.34000,8.23999,57.3532
4.79999,22.8199,-14.5092
-14.6400,8.59999,66.2215
5.19999,-11.5600,-67.5770
-8.66000,2.95999,16.2178
-1.48000,20.9599,-73.0837
-13.6000,5.57999,-59.3440
-13.2600,11.0999,-50.7008
-8.26000,-4.76000,120.709
10.3599,8.11999,-119.016
-8.00000,-5.36000,-111.557
-8.70000,-2.26000,111.638
-14.1400,15.7799,-34.5560
-13.4600,7.99999,-172.430
17.3999,-2.26000,120.147
-6.14000,16.2199,-84.9559
6.49999,25.5599,9.56967
15.2399,22.0799,67.7123
-11.2600,17.4199,-42.2552
-9.80000,-10.1400,-32.3623
-5.36000,-14.4800,-18.2853
7.35999,-1.42000,-136.216
-3.34000,23.6399,63.5326
-2.36000,-3.12000,158.285
-3.92000,-7.82000,-103.724
-6.04000,-12.0600,-124.147
9.89999,-9.24000,19.8884
0.39999,13.7199,25.9467
8.39999,18.4399,42.4929
-3.24000,-13.9200,-102.734
-11.4400,6.47999,-79.8423
-2.78000,-2.80000,-143.393
3.01999,17.3799,170.751
-10.5800,7.77999,-82.9308
-1.52000,2.99999,32.4656
2.77999,-12.1800,-119.069
3.17999,8.27999,-102.854
6.71999,16.2799,83.3259
4.73999,21.5999,-28.8306
4.75999,-13.4000,-149.804
8.25999,-2.56000,-51.5478
4.85999,-2.08000,12.4940
7.33999,2.79999,14.7755
-8.46000,21.3599,40.7917
-9.94000,6.81999,-14.1441
-3.34000,18.6999,-144.832
2.21999,-5.20000,-17.3391
-13.7400,3.99999,-0.93920
-9.50000,16.8399,101.264
2.79999,-17.0400,89.0529
14.1199,-7.40000,98.7918
-9.82000,-9.96000,65.5238
4.03999,4.87999,38.3219
7.99999,-3.62000,-94.7781
-10.9800,1.71999,52.1727
14.9599,-9.06000,-83.6944
5.49999,-3.18000,9.11252
16.4199,21.7199,171.802
11.2199,5.33999,-0.07467
6.25999,-12.2000,-154.152
-5.02000,-13.3000,36.4681
2.83999,12.0799,15.2612
-0.54000,-15.7800,42.4836
-13.7800,15.2799,39.7708
-4.20000,-13.3600,61.2939
-4.38000,19.3999,165.929
-7.84000,-1.24000,20.0515
14.9599,18.3799,85.1374
15.6599,-8.40000,-175.487
18.0599,22.1999,138.039
-5.44000,-0.64000,60.7879
9.83999,9.53999,146.512
4.17999,-14.7800,127.004
-8.48000,-6.76000,113.246
-5.56000,25.9199,-81.8176
5.11999,4.97999,-38.5552
-12.3400,12.0599,-77.6892
-5.48000,-4.40000,-58.1759
4.09999,17.0799,0.81297
6.17999,6.21999,29.3051
4.55999,15.7199,175.872
0.93999,-10.8000,-79.4987
0.33999,-3.90000,7.21103
-7.68000,-2.64000,-47.2605
1.49999,-10.8600,38.6005
4.93999,-8.20000,43.5710
-8.28000,-14.0400,57.4203
5.07999,22.2999,79.6487
12.6799,19.1399,-89.4612
4.85999,-2.08000,12.4940
-5.58000,2.55999,98.5612
5.87999,19.4399,138.286
8.71999,-11.2200,129.566
9.51999,5.47999,-73.8715
-10.1400,26.0199,-4.02471
8.99999,-7.50000,77.1111
0.97999,-7.86000,-56.2183
-8.06000,-14.0000,-159.707
-4.64000,25.1799,-127.156
5.47999,-11.0400,94.3623
8.91999,-12.1200,150.765
23.3999,-13.2000,-8.72331
28.2999,21.2999,122.189
4.95999,-12.5600,78.0794
5.85999,2.35999,5.91720
-5.38000,23.1399,-4.23499
-13.4400,12.1799,-48.9585
-13.9200,5.15999,-10.2452
10.1999,20.4399,28.3559
8.83999,-16.7400,111.596
-12.8800,17.4599,39.6772
-12.4200,3.69999,-126.421
9.17999,21.6599,-58.5907
-7.40000,1.49999,-21.9586
-9.20000,18.8999,163.021
-4.00000,-0.48000,156.486
-4.24000,-10.7600,40.1135
11.1799,2.45999,17.0454
-10.8600,1.05999,-47.5573
-7.42000,2.31999,165.275
-8.40000,-5.64000,-82.4873
-3.14000,-6.10000,25.5151
-4.68000,23.1799,17.0875
2.67999,-6.64000,34.7622
11.5799,17.0999,106.132
-7.46000,-2.90000,43.0693
8.11999,-15.4600,-13.8665
-10.2200,21.1199,140.072
1.21999,4.51999,-55.5454
-9.18000,0.71999,-51.5540
-1.64000,22.3199,-59.9918
-4.94000,19.7199,102.918
15.5599,14.8199,-153.261
0.87999,25.0599,125.384
-0.22000,-11.2600,159.292
-10.3800,-0.26000,65.3896
8.49999,-0.72000,-113.117
-14.4600,10.7199,-150.317
8.77999,-7.68000,-94.0979
-12.6000,6.89999,118.974
13.7999,-7.34000,-108.155
7.95999,0.63999,164.314
4.55999,15.7199,175.872
-5.04000,-15.7800,-130.932
-9.54000,6.27999,74.8289
-3.66000,25.8599,-143.564
9.87999,0.31999,98.1495
-2.60000,-5.58000,101.310
8.81999,-3.80000,114.313
-1.80000,24.2999,161.646
-11.2600,12.0999,-124.001
1.41999,0.75999,174.072
13.3399,-6.94000,108.751
-2.24000,15.1199,-140.143
-2.00000,0.77999,39.9288
1.79999,-13.7400,-94.1425
9.19999,2.01999,88.2100
-7.28000,23.7999,151.918
-8.30000,2.37999,-166.919
-11.1800,1.49999,-36.4908
17.1599,-8.10000,151.657
2.11999,14.0599,-13.2465
3.91999,6.11999,-93.4856
-5.86000,21.9399,-101.901
11.5799,-9.24000,90.5083
-3.64000,0.91999,127.200
11.7599,13.4599,-85.5980
-0.72000,-16.0600,106.460
9.15999,9.97999,128.515
6.47999,14.3199,-130.366
-5.44000,1.25999,-7.28764
17.0199,-7.96000,-104.779
-5.86000,20.7799,133.387
-7.20000,16.7599,-138.185
-0.04000,-10.5400,-6.68030
-7.28000,25.6599,-132.401
2.85999,7.93999,174.823
-1.86000,-13.5000,-1.63046
2.35999,-7.18000,173.284
4.61999,-14.7600,117.844
3.15999,-16.4400,130.548
7.31999,23.6799,-127.573
-9.78000,16.9799,-91.0123
-7.16000,22.6199,56.0011
-8.66000,-6.90000,27.5525
-1.96000,5.67999,31.8145
0.27999,-13.9800,172.756
-9.70000,-14.2400,42.0527
2.25999,12.9599,175.338
0.59999,-9.36000,85.5089
-9.88000,6.59999,140.681
3.59999,-2.68000,172.419
-8.60000,3.41999,-47.7885
-12.9600,12.9199,109.405
-9.82000,-3.10000,-147.788
-3.18000,-8.46000,130.646
2.25999,-5.72000,121.697
-1.82000,-14.7200,134.369
8.69999,7.19999,-83.1999
-7.46000,-1.62000,4.19480
-1.24000,-16.2600,47.2599
-1.82000,-14.7200,134.369
-7.28000,-9.58000,-169.599
-3.44000,2.13999,-7.75118
-4.90000,24.8999,-151.911
4.09999,-6.20000,76.0909
5.31999,12.2799,102.110
-2.24000,0.15999,-20.5674
-2.86000,24.5399,-165.228
6.39999,-8.24000,-96.2978
5.37999,-2.34000,160.579
-11.7400,-1.06000,-13.6258
-4.84000,0.71999,-21.9022
1.01999,-10.9600,-121.586
-9.64000,-13.3600,151.281
3.05999,-16.7600,132.792
1.23999,0.93999,-112.273
-6.10000,-12.7400,-80.7030
0.23999,5.73999,-87.7246
-5.46000,20.9799,-131.936
-8.02000,0.07999,-26.1249
-1.58000,25.0999,-139.812
-6.24000,-15.7600,-52.6735
-8.02000,13.0199,-98.4102
9.35999,5.27999,-140.302
3.17999,8.29999,101.084
-11.7600,0.89999,-62.9058
13.0799,17.6599,8.41053
-0.80000,-10.9400,-77.8340
-4.92000,-5.04000,31.1818
15.8399,21.2999,-99.0896
-14.5600,2.81999,-103.182
-8.82000,0.69999,-46.9080
-11.3800,11.8199,54.4579
8.71999,-0.88000,55.6861
-6.86000,-4.80000,151.809
9.11999,21.2199,113.911
-9.32000,-0.34000,133.751
-3.12000,9.81999,-13.7130
10.7399,9.89999,-171.511
-2.18000,-10.1000,-10.1260
-2.96000,19.0799,137.230
-1.42000,12.0599,37.7097
3.79999,23.5399,-52.2304
-12.3200,10.0999,-133.552
-3.72000,25.4799,-118.063
5.47999,24.8399,-28.7618
-3.96000,-4.72000,39.6276
2.49999,8.83999,51.4169
-7.98000,-5.54000,24.4886
13.0399,22.2399,-110.286
-4.00000,25.3399,5.54499
-7.74000,-2.28000,-2.18719
13.1399,19.2199,-179.989
-9.96000,6.51999,115.882
3.63999,2.13999,40.1474
-7.46000,20.8799,12.6077
7.49999,-0.34000,-25.7106
11.1399,17.5999,-40.2784
10.8199,-8.00000,80.7654
-2.96000,23.0599,81.3622
8.61999,1.73999,123.661
1.99999,14.1199,22.9408
-2.66000,4.85999,-81.5504
-8.08000,-8.20000,-98.8355
0.53999,-8.76000,-161.403
2.77999,-12.1800,-119.069
0.87999,25.0599,125.384
-1.78000,-1.98000,-6.01327
-13.9000,10.8399,124.562
-7.20000,16.7599,-138.185
-13.9200,5.15999,-10.2452
-14.8400,18.8599,-109.619
-12.6000,15.8999,-70.1253
0.87999,-12.6800,171.364
-0.70000,-15.8600,-4.62772
8.45999,-14.9000,-162.830
-5.74000,-13.8800,-102.323
-3.56000,25.5599,38.0535
-3.48000,-12.2800,-169.105
-10.1000,16.1599,166.007
-6.32000,-11.0400,-130.638
-7.22000,1.75999,67.4740
11.3599,-0.06000,-104.226
5.33999,20.0799,24.9011
2.75999,22.1999,-119.127
7.21999,10.1999,56.1698
-1.74000,-8.60000,123.304
10.2599,-3.54000,76.1363
-1.58000,-7.96000,15.3560
-6.22000,9.55999,-118.564
-3.22000,-2.30000,63.4484
-2.78000,20.0799,149.538
-11.7600,12.2199,140.240
4.35999,11.4199,-81.4217
-7.86000,5.85999,-175.929
-3.36000,-16.5800,-75.2490
8.57999,25.7399,-134.994
6.53999,25.9599,157.943
7.19999,22.7399,-58.1794
6.37999,9.15999,-136.712
-14.0600,-0.94000,12.8305
-3.64000,-0.86000,63.3695
4.95999,2.07999,61.0583
1.49999,-10.8600,38.6005
18.5999,21.9399,59.0171
11.5199,21.9799,77.7721
0.33999,2.11999,-21.9492
6.49999,10.2399,40.9480
-7.78000,-10.1400,7.62429
-9.84000,-7.24000,-155.294
7.37999,-3.76000,121.412
-12.9000,9.01999,15.9553
-12.6400,1.25999,105.986
5.41999,8.11999,83.3839
-9.94000,13.1799,137.283
8.51999,-5.38000,-23.1788
-2.52000,-11.8800,148.919
-6.18000,0.37999,18.6826
-9.64000,-13.3600,151.281
3.71999,25.3199,7.11810
-8.18000,-8.12000,-89.1131
-9.02000,-9.30000,-52.1520
15.3999,15.3199,-108.129
-0.86000,23.4599,32.5371
7.43999,-5.94000,108.566
-3.96000,24.0399,98.7352
6.23999,7.65999,-99.4414
9.51999,-13.0400,52.2502
4.47999,26.3599,-24.3749
-5.64000,0.67999,80.6663
8.67999,17.0599,-78.7165
1.85999,-11.0800,-142.913
0.55999,-10.1400,165.773
7.09999,26.1799,-132.677
-2.52000,-2.30000,-8.57044
9.53999,7.29999,170.056
13.1399,19.2199,-179.989
-4.92000,-17.2400,33.1638
-7.72000,0.47999,1.12850
-8.28000,2.69999,-134.442
4.35999,11.4199,-81.4217
13.5599,-9.16000,89.7983
-14.0800,12.5399,129.802
1.15999,-6.04000,-79.1938
8.47999,-14.8200,15.4551
2.17999,2.53999,121.198
-10.0600,-16.3600,-42.8196
-5.88000,25.1199,-83.4121
9.97999,-4.22000,122.569
2.49999,24.8199,-129.829
10.0199,20.1399,-89.2513
8.37999,9.91999,-115.432
4.35999,22.6199,149.969
10.0399,-4.32000,44.0124
9.15999,-3.86000,125.315
21.6399,-12.5800,-164.584
3.07999,1.47999,-157.117
5.99999,-11.5600,162.436
1.65999,-11.1200,29.8959
10.3799,-12.4400,75.5890
10.6799,3.89999,154.520
-7.38000,21.6799,-134.425
2.55999,-2.92000,-124.166
-5.42000,23.8599,-8.29689
-8.60000,13.1599,-58.4009
1.83999,-14.2400,98.4828
-13.3400,3.61999,-145.820
1.21999,4.51999,-55.5454
-13.8000,-1.38000,-32.6398
0.43999,9.87999,-138.091
8.73999,-8.40000,-11.8385
2.81999,-2.86000,-50.8694
-9.76000,7.27999,104.355
3.69999,-3.28000,-93.5313
-6.82000,1.37999,30.7452
-4.10000,-5.56000,-82.2442
10.3799,0.39999,139.994
6.37999,4.17999,135.627
3.01999,-2.68000,28.5634
-3.14000,-6.10000,25.5151
11.9999,16.3999,26.5845
-9.86000,16.0799,35.7143
-0.42000,20.2599,-52.5968
-14.1400,15.6999,-35.1002
2.31999,-8.96000,-46.1946
0.53999,11.2199,66.8262
1.17999,-3.46000,141.656
-4.70000,3.23999,-177.942
15.1999,22.3599,41.9029
-6.24000,24.7799,-62.2991
-1.96000,5.67999,31.8145
6.09999,3.91999,-37.8695
-7.76000,-13.6600,174.412
-5.88000,25.1199,-83.4121
-8.30000,24.6199,-49.6375
-0.52000,-9.16000,175.064
6.39999,24.4999,-113.959
-5.54000,-9.92000,-46.8201
8.79999,8.07999,-29.6835
10.7199,0.19999,-179.400
1.23999,0.93999,-112.273
7.75999,0.91999,112.775
-1.42000,12.6399,69.9564
8.03999,-6.68000,14.9130
-1.54000,-8.68000,-168.541
-3.46000,-14.6400,1.14604
21.3399,9.61999,-10.4879
-4.88000,-9.98000,102.322
-10.2200,-12.7800,167.015
6.49999,10.2399,40.9480
6.35999,-5.16000,31.1152
-8.70000,-14.3800,-41.0110
-7.88000,20.1999,158.936
-10.0200,-6.14000,-1.62565
2.39999,10.5199,26.8758
-9.60000,4.07999,53.8449
1.09999,-10.4200,-6.24210
10.6399,10.7399,152.555
14.0199,-5.22000,-99.6882
4.93999,-11.1200,-122.300
6.61999,25.7199,7.43491
-3.46000,-14.6400,1.14604
-8.20000,-11.8800,-12.5767
-14.4600,10.7199,-150.317
3.17999,4.91999,103.994
-11.2600,12.0999,-124.001
6.83999,-14.0800,-26.4004
13.8799,-7.28000,171.765
-1.06000,12.5599,-40.8422
-0.34000,5.65999,89.8162
-8.70000,6.39999,165.743
15.5999,-6.26000,-178.978
-9.68000,-3.44000,-61.0673
-14.0800,9.71999,-90.9079
-6.80000,-14.9600,-179.367
-9.16000,18.5399,67.4161
14.8399,17.0799,85.4284
6.45999,20.6599,114.332
-11.7600,0.89999,-62.9058
10.7199,25.4999,101.869
10.7199,0.19999,-179.400
6.23999,-6.60000,93.6802
17.8799,-13.4400,142.397
10.8199,6.89999,-118.740
4.69999,2.59999,179.973
10.5399,8.87999,-88.2073
20.4199,-14.1000,-123.074
-1.88000,23.5599,-168.630
6.25999,-12.2000,-154.152
-7.48000,7.35999,48.4728
0.49999,-10.0200,-148.426
-9.70000,21.9799,-74.3842
15.3999,20.2199,94.1917
10.4999,17.4599,102.026
2.97999,-10.4000,-62.3916
15.2599,19.6399,-1.33442
-2.58000,-3.56000,-141.937
14.6599,17.3999,-167.589
-3.38000,15.1399,177.235
-10.8200,2.13999,-81.2506
-9.98000,10.2999,-145.841
-10.3600,15.3399,-75.6085
2.19999,22.5599,-120.759
-2.30000,16.6799,-12.8698
-11.0400,3.25999,148.113
2.29999,5.77999,-55.9296
6.11999,-10.7000,101.405
-3.68000,22.4399,0.98839
-7.92000,-17.6400,155.287
10.5599,2.11999,33.6688
-11.7800,14.7599,175.758
-5.34000,5.23999,41.7381
-6.24000,24.7799,-62.2991
-12.9200,17.7599,-83.1992
-9.82000,1.89999,145.176
14.8999,-14.4000,-144.161
-8.70000,-14.3800,-41.0110
-0.80000,-1.14000,12.2067
-7.32000,9.31999,148.007
-12.9400,19.5999,119.738
-1.82000,-13.7000,71.8245
-12.4200,20.3999,94.9282
-7.28000,-11.2200,-28.6047
21.8599,-9.08000,-125.626
12.9799,-9.00000,26.1072
-2.70000,-9.56000,-139.401
-10.9000,6.99999,-146.918
-4.16000,20.9999,-96.7819
-14.3800,8.91999,-47.9132
1.79999,-11.0200,-103.605
3.53999,7.83999,-60.1782
2.89999,7.25999,30.4165
5.61999,14.3999,17.1632
-5.36000,-14.4800,-18.2853
11.8599,20.9399,-101.614
10.3799,7.59999,-17.7167
-0.36000,25.3599,-5.09178
-11.0400,2.43999,38.6292
8.07999,2.23999,-164.621
7.99999,-3.62000,-94.7781
10.7399,9.89999,-171.511
-4.12000,-10.9800,-148.227
6.29999,3.91999,-107.684
-7.84000,20.9999,-49.4025
9.73999,-4.60000,82.2696
-0.16000,-11.7200,82.3157
-6.48000,24.2999,-31.2014
1.85999,-11.0800,-142.913
-13.4800,-2.56000,-12.4867
-10.5800,7.77999,-82.9308
-11.1400,11.8799,-46.6899
9.89999,-6.18000,-96.7864
1.21999,25.4399,158.592
-4.16000,20.9999,-96.7819
5.07999,5.39999,-53.3626
10.3599,-14.2000,146.135
14.6199,-4.22000,159.555
7.23999,-13.0600,133.197
-0.22000,-11.2600,159.292
-12.0600,-1.58000,34.6679
1.09999,-10.4200,-6.24210
-2.08000,-7.22000,-167.187
2.91999,-2.08000,-86.7429
13.9999,22.6999,-147.654
0.23999,18.2399,-65.1463
0.91999,14.4999,163.687
-3.30000,-3.00000,127.801
-0.02000,10.3599,99.0829
-11.1400,11.3599,78.0619
6.89999,-13.4400,-84.6805
1.29999,-11.5400,-167.685
3.41999,2.21999,-146.700
-8.82000,4.83999,1.91286
-7.04000,9.05999,-97.3934
7.21999,-1.92000,159.166
0.33999,-3.90000,7.21103
1.01999,-13.4000,-178.602
11.7999,20.9799,-108.384
14.5799,-5.30000,125.370
9.07999,1.79999,153.769
6.31999,13.3799,156.776
11.3199,-13.4000,156.178
-0.94000,-15.2000,168.127
-3.30000,-6.02000,-9.12728
15.2999,18.1399,38.1028
-2.70000,22.7199,-172.426
-10.5400,18.4399,86.9663
-0.74000,-13.1400,-46.5937
-14.2400,6.65999,130.044
8.69999,0.35999,169.848
0.37999,2.05999,-23.8265
-6.30000,-12.1600,-137.175
4.35999,9.81999,-41.4679
9.83999,5.59999,-148.135
-2.34000,3.01999,-179.500
-13.7000,16.9399,154.905
3.91999,11.9999,-25.6693
8.49999,-14.4000,120.775
-4.48000,-1.58000,36.8135
-6.08000,-2.94000,45.9654
4.15999,-13.3800,-172.662
-8.50000,5.29999,161.896
-6.12000,20.5399,-124.954
4.23999,6.99999,-123.838
3.09999,22.8399,-19.8535
-3.46000,-11.2800,-53.6873
-9.98000,10.4999,5.41904
-4.30000,2.31999,150.195
0.77999,-15.2000,-51.3351
10.9599,11.1799,64.1446
0.05999,-11.7800,-84.0455
-8.28000,-16.5800,81.6581
-4.40000,-11.1800,-135.339
3.77999,3.09999,-92.9925
-5.72000,-1.14000,50.3218
-0.80000,-1.14000,12.2067
-2.98000,13.2599,157.109
15.6999,-8.48000,170.809
-3.70000,22.9399,83.6682
2.21999,-5.20000,-17.3391
-10.5400,6.07999,65.1190
-3.26000,8.43999,154.140
13.9999,22.6999,-147.654
10.6199,-0.10000,100.970
2.99999,10.9999,-35.1025
-7.46000,8.19999,67.1781
-4.04000,-6.42000,-127.115
-4.16000,-8.54000,-132.606
-12.0000,19.8999,131.527
-12.0000,19.8999,131.527
0.71999,-16.9800,-171.757
11.7599,13.4599,-85.5980
-7.50000,6.61999,142.431
1.49999,-11.2400,105.824
-7.02000,-5.18000,13.3294
9.89999,-9.24000,19.8884
-2.18000,-10.1000,-10.1260
-8.86000,-5.84000,-12.0322
11.2999,16.1399,115.538
-7.06000,3.15999,-66.2043
-8.44000,-2.32000,-32.9988
-6.96000,10.6799,-54.3534
4.87999,-12.4000,-63.9862
-5.42000,-4.34000,-131.405
-4.12000,-10.9800,-148.227
10.2399,-4.66000,144.641
15.5599,14.8199,-153.261
-2.26000,-2.46000,-158.047
7.83999,4.69999,-126.443
7.95999,-10.1000,-169.660
-7.64000,-1.22000,113.832
-2.28000,17.4599,-163.092
-1.42000,-6.12000,64.1859
-13.6600,0.03999,144.288
6.65999,-16.3200,96.8467
-9.76000,23.3799,177.274
12.5199,10.4599,63.2801
-8.40000,-15.1800,29.1085
12.4599,-13.5000,178.525
5.63999,-15.6000,162.593
-4.92000,5.69999,137.890
0.17999,-0.12000,-148.175
-6.20000,6.77999,152.385
-12.9000,-2.04000,-15.8408
1.51999,-6.56000,-99.9844
-9.94000,10.2999,-19.4724
-9.56000,16.4999,-177.256
6.23999,7.65999,-99.4414
7.69999,-2.68000,-93.7370
-5.04000,-5.86000,-46.5791
-9.32000,8.41999,20.1403
-8.22000,13.5999,-133.046
-7.48000,-6.84000,162.092
-10.6600,20.0399,146.020
7.19999,21.9399,30.4023
-4.86000,24.3799,-135.856
8.43999,-1.11758,-1.93163
-11.8000,16.2999,-106.857
7.47999,-0.14000,55.2620
2.87999,-12.2400,-25.2350
6.23999,-7.04000,166.921
-2.50000,-16.0000,-16.9990
-2.92000,-15.2200,173.512
-5.26000,9.73999,-55.0706
-9.52000,-14.8000,85.0884
4.19999,24.0399,8.29370
-8.54000,-9.28000,174.038
0.17999,-0.34000,-7.64000
-3.38000,-1.20000,-17.8600
-5.16000,8.11999,-0.82726
-4.14000,-13.4600,115.244
-0.18000,11.0199,-53.2308
5.39999,13.6599,-74.4213
4.97999,13.1799,-91.5853
20.6599,-13.2000,103.660
-6.32000,4.53999,94.5282
12.7399,-2.30000,-155.068
-7.18000,-17.2200,-41.9336
-11.8000,16.2999,-106.857
11.6999,-12.1000,166.410
-9.18000,-1.80000,71.0054
10.6999,3.87999,-107.281
-10.2200,21.1199,140.072
-10.9200,3.79999,69.8013
-9.82000,-9.96000,65.5238
-4.86000,7.65999,-124.979
9.73999,-4.60000,82.2696
2.63999,2.45999,82.1562
7.75999,5.43999,-34.0818
5.45999,-7.82000,-105.775
5.29999,-1.78000,-140.043
8.65999,-8.86000,41.9823
8.39999,-9.56000,-140.812
2.97999,22.4799,-65.5697
4.25999,21.1199,-44.4132
-0.96000,0.95999,43.9272
-12.6000,10.7199,-104.164
13.8799,-7.28000,171.765
-10.6800,-0.90000,87.9916
-3.60000,-10.2200,-103.816
10.4599,12.9799,-100.682
-2.58000,-3.56000,-141.937
3.63999,-11.1200,-104.521
4.13999,-9.50000,35.4439
16.1599,-8.36000,-85.4556
15.5999,18.8799,117.293
14.8199,17.0599,78.9938
2.63999,2.45999,82.1562
11.8599,20.9399,-101.614
4.85999,-2.08000,12.4940
8.79999,0.31999,-94.7868
-2.68000,20.7599,127.101
-9.82000,1.89999,145.176
-2.78000,-2.80000,-143.393
-0.94000,-6.58000,-74.4385
8.37999,-13.0800,-52.8992
-0.08000,6.19999,-135.242
5.77999,-1.82000,-173.852
-6.82000,-7.44000,-105.151
0.63999,0.45999,-16.9045
6.71999,11.3799,-162.529
3.93999,-1.42000,99.1004
-12.6200,18.5399,85.7384
-8.80000,-12.0800,111.978
-9.02000,-9.30000,-52.1520
-8.08000,-8.20000,-98.8355
-11.4400,13.6399,122.856
9.75999,0.21999,-145.832
-12.1600,1.35999,-124.984
-10.8600,12.7999,179.920
11.0799,7.63999,71.6318
8.61999,-12.5600,-111.925
4.49999,-16.5600,-50.0266
8.25999,-3.02000,169.429
-11.8000,15.4599,46.7803
-1.72000,-6.06000,-101.071
9.03999,-9.82000,-81.2414
-2.96000,19.0799,137.230
9.25999,-2.78000,-96.7384
17.2599,-8.10000,164.866
-11.4600,-1.40000,-17.1179
-5.66000,2.37999,160.955
7.05999,-4.80000,-59.1613
5.37999,-7.66000,43.9950
-3.28000,-8.16000,108.808
9.75999,0.17999,-154.571
-7.62000,10.5999,80.5486
3.47999,20.3399,147.196
3.67999,-13.3600,-175.947
-9.62000,-9.08000,132.365
3.15999,-15.8000,4.29461
13.9199,18.8199,-12.0723
-9.02000,-4.36000,62.0237
-0.54000,-15.9600,-23.3716
1.41999,12.9199,31.4512
-6.32000,-2.80000,92.6305
14.9199,17.4399,131.705
3.71999,-14.0600,113.061
-13.4400,12.1799,-48.9585
-3.94000,23.2399,20.2924
-3.90000,-6.02000,-135.090
10.5399,-8.80000,19.8649
9.11999,-15.5200,1.45069
-2.28000,14.0199,161.229
-9.92000,16.7399,-90.3540
-9.98000,1.97999,38.4297
-1.26000,-6.80000,-64.9904
10.6599,-9.56000,71.1397
-3.12000,-8.96000,-148.003
12.9399,-3.60000,-171.366
9.53999,24.1599,-6.09278
1.59999,24.0399,124.982
-12.5600,13.2199,-79.1048
-8.26000,-1.34000,69.1773
3.53999,-16.2200,-17.0314
-13.0200,8.37999,-8.24830
9.45999,-4.48000,-73.2474
9.07999,25.5999,-111.651
5.53999,5.31999,122.790
-7.80000,-3.34000,153.607
-7.18000,-12.9600,40.5109
-14.2800,8.41999,-5.84659
-9.06000,-3.54000,137.542
-5.66000,14.4599,103.166
4.85999,12.1399,26.7466
0.73999,21.4999,140.124
-5.12000,-9.52000,-118.805
-6.80000,-14.9600,-179.367
-2.96000,23.0599,81.3622
-11.1400,11.8799,-46.6899
-5.98000,-3.24000,-142.109
-4.70000,-10.6200,87.9236
-9.80000,-14.5600,77.2746
3.47999,20.3399,147.196
-9.52000,-10.5800,162.099
2.57999,-15.4200,-26.6128
9.69999,5.79999,114.214
-6.94000,18.0999,-7.87902
5.07999,5.39999,-53.3626
5.79999,-4.94000,1.41145
6.49999,1.67999,-164.512
14.7799,-2.78000,109.759
13.0799,17.6599,8.41053
1.03999,-2.16000,29.7973
-13.3200,4.19999,18.4608
9.29999,-4.68000,111.445
-3.28000,-8.16000,108.808
6.31999,13.3799,156.776
11.0799,17.6199,-174.413
-8.34000,-2.36000,-68.3033
0.87999,25.0599,125.384
0.43999,-15.4400,177.658
7.43999,3.25999,-150.218
-9.34000,0.03999,105.659
11.3199,-13.4000,156.178
-8.22000,0.23999,46.4953
0.11999,-3.88000,64.3373
-3.10000,20.2199,-176.593
-10.1000,14.2199,61.5207
0.65999,-14.8400,95.7156
8.73999,-8.40000,-11.8385
-14.7000,14.4799,-151.929
8.69999,7.19999,-83.1999
-2.76000,-17.2000,137.265
-15.0600,3.79999,65.1442
-7.72000,-15.4600,156.346
7.89999,19.7599,32.6293
-13.8000,8.47999,-39.4572
6.13999,7.21999,-172.056
17.3599,-8.62000,54.4149
-0.36000,9.23999,44.9068
-4.60000,6.85999,165.266
-1.52000,2.99999,32.4656
-14.9000,7.95999,23.0760
-8.60000,2.75999,179.345
-3.94000,23.2399,20.2924
5.97999,5.55999,32.9569
-3.70000,-10.1200,46.5862
14.8199,-2.38000,-72.0084
-7.34000,12.3199,22.4968
3.09999,-13.2400,67.1836
8.97999,19.2599,-142.636
8.19999,-2.86000,-86.0831
-3.38000,-12.9400,-11.2698
2.25999,12.9599,175.338
-1.42000,-11.7600,-40.1314
11.5799,17.0999,106.132
-3.88000,5.81999,-82.7315
-13.8600,3.65999,-158.948
0.27999,-13.9800,172.756
10.7199,22.0799,-50.3316
4.47999,-10.4800,34.8131
-2.80000,-7.08000,135.591
-6.60000,19.3799,102.314
15.4199,21.6399,-125.368
-12.4800,-0.34000,107.354
10.4599,20.5599,-31.3351
-9.04000,0.57999,-62.7174
-6.28000,-9.10000,-8.92227
4.91999,-1.68000,169.268
-4.46000,-9.14000,-173.259
27.1199,22.4599,42.6887
7.17999,-12.4600,54.4228
14.8199,17.5399,175.316
6.13999,16.8399,-172.637
-0.66000,-13.6600,-106.599
7.75999,5.43999,-34.0818
-6.22000,10.4399,103.167
-7.38000,-1.88000,-145.916
-0.66000,-7.86000,20.7470
7.29999,-10.2200,6.18350
9.53999,24.1599,-6.09278
-7.78000,2.13999,168.705
8.27999,-9.14000,5.35467
3.55999,26.1199,63.5829
6.63999,17.4999,-145.437
-4.58000,16.7199,106.320
20.4999,21.1199,173.926
-2.66000,4.85999,-81.5504
-1.11758,-12.5800,116.735
-12.9400,19.5999,119.738
13.3399,10.3399,113.331
-5.38000,-0.62000,45.7962
-1.26000,-15.6800,150.485
8.17999,-4.72000,23.8853
-9.86000,-13.5600,-35.9704
-8.46000,-1.04000,-45.1728
-6.30000,-14.7800,142.314
6.03999,24.5399,2.03351
6.25999,-14.2600,-116.898
-8.32000,25.3999,-117.131
7.21999,-1.92000,159.166
9.35999,3.51999,-130.294
-1.30000,-10.1800,-106.798
5.93999,-11.4200,-8.11567
0.87999,25.0599,125.384
-4.18000,-14.3600,-155.289
11.1399,17.5999,-40.2784
2.69999,-12.9000,4.67211
2.07999,-17.2400,0.51779
-9.00000,18.1999,178.668
-11.9800,10.4799,-119.858
8.57999,-16.6800,-66.9646
10.3799,-12.4400,75.5890
-11.5800,20.5799,-179.967
7.59999,1.21999,-95.4812
-6.38000,-2.72000,73.1759
-4.14000,16.6399,179.427
-9.34000,4.27999,2.78576
-7.80000,10.5799,61.2760
3.97999,1.67999,147.162
-2.64000,-9.84000,150.227
2.35999,25.5599,-97.6771
13.5199,18.8999,72.1905
7.37999,-10.3600,-71.9785
-2.72000,-4.00000,178.357
20.6599,-13.2000,103.660
-13.9200,3.21999,89.5048
-6.72000,-3.66000,-108.833
-4.12000,-8.18000,156.006
9.19999,-12.4800,-110.273
11.1799,2.45999,17.0454
-0.54000,-14.4200,65.9567
5.41999,-7.70000,-166.339
6.03999,12.0399,-59.0676
3.53999,7.83999,-60.1782
2.55999,-8.54000,21.8459
-11.5800,1.05999,-13.0994
-10.5400,18.4399,86.9663
-7.34000,0.65999,-125.372
0.41999,1.03999,-119.261
4.25999,21.1199,-44.4132
-3.70000,22.9399,83.6682
7.35999,-9.22000,59.8437
10.5999,-0.14000,-41.5882
-9.88000,17.9399,-31.9536
7.01999,7.93999,120.019
-9.24000,-0.44000,-11.9304
-12.6400,1.25999,105.986
3.29999,17.0799,-90.5716
5.45999,-7.82000,-105.775
-11.4600,17.5599,11.8890
-9.54000,-4.50000,25.4933
-0.46000,-13.1000,164.437
-5.10000,-3.30000,-104.489
-0.88000,-0.24000,24.8792
-8.76000,25.6599,-18.6578
-8.32000,-13.9600,-6.15238
8.85999,20.6399,-97.9494
-10.7400,-0.96000,46.9645
-1.64000,-8.34000,-169.010
-0.94000,-15.2000,168.127
9.17999,-7.84000,-70.6644
-9.56000,-9.18000,39.1291
5.93999,-11.4200,-8.11567
9.85999,16.7199,84.7663
-4.60000,-4.62000,120.478
-9.80000,9.23999,114.083
-2.60000,-8.14000,116.362
13.8199,-8.66000,-156.310
3.91999,11.9999,-25.6693
6.97999,16.0799,-111.962
-9.80000,-13.1000,111.506
-8.90000,-6.26000,-61.8919
-11.7600,0.89999,-62.9058
2.75999,22.1999,-119.127
-7.56000,-11.7200,1.31826
11.7399,-13.6000,-162.729
-3.04000,3.23999,-99.8715
-1.58000,-8.66000,107.488
-8.38000,-13.8800,30.2029
4.73999,21.5999,-28.8306
10.8199,-16.8200,-110.151
-14.9000,18.2799,-34.5540
-6.82000,-7.44000,-105.151
3.91999,11.9999,-25.6693
11.8199,19.7399,150.762
3.97999,1.67999,147.162
-7.62000,-9.66000,53.5775
-2.38000,15.5799,-168.895
16.6599,10.4599,-161.241
5.89999,25.8199,-33.3779
0.81999,3.39999,58.9299
-2.32000,12.6999,135.197
6.77999,3.49999,-145.369
13.2199,-6.12000,-43.1340
-7.64000,11.8999,-64.9774
-5.62000,18.7799,156.662
-1.60000,11.5799,119.512
9.17999,-7.84000,-70.6644
-8.60000,3.41999,-47.7885
-12.1200,5.15999,53.4113
7.13999,3.03999,-78.6100
-7.00000,11.8399,-147.246
15.9799,22.2799,86.7576
3.03999,24.8399,122.882
3.17999,6.67999,132.395
10.2799,-10.7400,68.2409
0.53999,-1.68000,6.64392
-14.0400,0.05999,-114.315
-6.22000,9.55999,-118.564
8.39999,18.4399,42.4929
-6.42000,-9.94000,99.3926
-10.3600,15.3399,-75.6085
5.53999,18.3799,178.040
-12.9200,17.7599,-83.1992
5.63999,-15.6000,162.593
-8.26000,-4.76000,120.709
-10.6000,2.57999,-82.3508
5.81999,19.2599,-179.231
9.75999,5.79999,117.501
3.41999,24.2599,175.529
-8.20000,5.79999,-159.752
13.2399,21.2999,-126.530
-2.80000,14.1599,-40.8122
-9.48000,0.55999,-8.03574
-10.8200,-2.60000,-48.0372
3.97999,-3.50000,53.3172
14.4999,-5.18000,-8.16216
-3.06000,14.7999,-64.9271
24.4199,21.2199,-44.1870
-10.6000,13.0999,29.3278
9.91999,21.7799,-33.1537
-8.76000,25.6599,-18.6578
6.39999,-8.24000,-96.2978
-7.30000,19.4599,-94.1115
7.47999,-0.14000,55.2620
12.7999,-5.08000,130.271
14.3199,10.8799,124.132
-5.46000,-5.66000,141.705
-7.94000,-4.78000,77.9100
-6.18000,12.4599,59.2409
-4.68000,-15.7000,-80.5632
8.03999,-6.68000,14.9130
7.95999,0.63999,164.314
-5.06000,2.21999,163.156
-2.24000,23.6799,161.184
9.15999,-3.86000,125.315
-5.50000,16.8399,23.6534
-3.10000,-16.2400,140.225
-13.1200,18.5999,155.976
1.23999,-12.3400,-139.233
3.43999,1.25999,9.55560
-4.16000,-8.54000,-132.606
13.8799,16.6199,29.9982
-2.66000,4.85999,-81.5504
-11.3600,13.3399,17.1625
9.05999,-12.8600,-14.0640
-2.66000,4.65999,160.734
1.83999,-6.06000,-169.764
-1.80000,-16.5600,-40.2161
-3.80000,-11.6000,79.0324
-4.00000,2.33999,-74.6160
-0.74000,-13.1400,-46.5937
15.2999,18.1399,38.1028
7.05999,-13.9800,145.530
9.79999,1.15999,76.4059
6.17999,25.4199,84.7794
-2.38000,-3.56000,-62.0939
12.3599,21.6799,175.082
-13.6200,19.4599,-34.8173
9.03999,-9.82000,-81.2414
5.63999,22.6399,155.175
-3.10000,-16.2400,140.225
2.97999,-8.86000,173.558
2.23999,20.5599,70.5756
0.73999,-13.6800,22.1523
3.91999,18.0999,40.9807
9.59999,-9.42000,165.646
-7.06000,-6.66000,75.2294
-3.30000,-6.02000,-9.12728
-2.94000,-6.64000,33.0667
-12.1800,7.61999,-85.7551
-3.70000,-4.38000,-80.4941
8.37999,9.91999,-115.432
5.47999,-13.4200,-50.7151
10.3799,0.39999,139.994
-9.76000,23.9599,159.586
5.27999,-7.84000,-135.883
-1.88000,-16.6400,-162.467
7.59999,1.21999,-95.4812
-10.0200,-6.14000,-1.62565
-14.8600,5.23999,-101.364
-2.50000,-16.0000,-16.9990
-6.24000,24.7799,-62.2991
-6.40000,17.3599,90.2675
12.5199,-7.62000,140.851
-8.76000,0.65999,-71.2201
9.95999,1.83999,128.403
-1.26000,26.2399,68.0472
-4.70000,25.4199,96.5591
3.71999,17.6599,18.3815
5.85999,2.35999,5.91720
5.35999,21.7399,140.902
-3.98000,-1.60000,-27.6363
1.85999,25.0999,-149.846
9.29999,0.59999,169.029
7.21999,13.1599,-88.1145
-2.32000,10.6799,-163.160
3.61999,-13.9200,166.817
6.71999,-11.7600,-37.7600
11.1399,0.89999,-2.51033
-6.32000,4.53999,94.5282
14.7799,-2.78000,109.759
0.23999,5.73999,-87.7246
-13.3200,10.3999,126.882
0.77999,-10.3400,-160.354
11.2199,-3.62000,154.734
-2.86000,8.83999,-15.7796
11.6399,13.9599,84.1628
7.13999,3.03999,-78.6100
-5.74000,17.7399,-171.431
-4.38000,7.67999,-179.277
5.33999,-13.9600,-77.9416
1.17999,-13.4200,-48.5126
6.83999,18.3599,71.1578
-8.60000,24.6599,138.294
8.37999,5.51999,100.108
-6.56000,0.93999,73.4198
-6.66000,-4.38000,149.266
1.73999,-9.46000,-109.396
-13.3000,16.2799,114.224
-11.3000,15.1999,157.068
6.71999,16.2799,83.3259
8.71999,5.05999,-12.7250
-14.2000,1.91999,9.18035
-4.52000,15.0199,-144.136
2.51999,5.71999,89.8982
7.85999,24.6599,-81.4561
10.7999,0.57999,54.8424
-5.44000,-5.68000,-86.9219
7.65999,-5.20000,-87.0769
10.2799,-10.7400,68.2409
-13.7400,3.99999,-0.93920
-6.22000,-13.3800,-173.088
6.37999,4.17999,135.627
-2.36000,-6.50000,94.2813
11.4399,-6.04000,-86.7393
-0.46000,-13.1000,164.437
-9.00000,24.3199,155.090
13.2399,21.2999,-126.530
9.65999,-2.26000,70.7734
2.29999,-13.2000,115.750
5.69999,-7.56000,172.620
13.2399,21.2999,-126.530
-7.48000,-6.84000,162.092
-3.34000,23.6399,63.5326
6.99999,-9.08000,66.8588
-6.24000,-10.9200,-134.834
-6.36000,-15.9800,-28.2231
-5.66000,-3.38000,94.4947
16.2599,21.6799,63.1176
-4.28000,-12.7600,152.026
1.69999,7.95999,89.6359
11.1799,-4.20000,-130.763
-12.5000,10.7599,-82.8377
10.2199,-13.5800,56.9020
7.67999,-6.98000,-105.065
11.1799,-8.16000,6.84081
-2.08000,6.13999,22.1559
-2.74000,7.55999,159.833
11.1999,-11.7000,108.723
-8.50000,16.4799,-37.5623
3.97999,-2.86000,-174.864
1.73999,-13.7000,-60.2818
-14.9000,7.95999,23.0760
4.69999,2.59999,179.973
-9.82000,1.89999,145.176
-3.88000,13.3399,-12.8250
4.53999,19.5199,156.039
12.9599,11.2199,-146.594
-1.96000,18.3799,-61.2358
-9.36000,-15.7200,-55.7355
-3.40000,19.6399,-168.124
5.57999,-17.4200,-101.784
9.87999,12.1399,-56.4475
-9.50000,9.83999,48.0384
-4.66000,17.6399,38.6022
-9.74000,20.5799,-135.995
-4.12000,-8.18000,156.006
-5.98000,-3.02000,-112.518
2.23999,25.9199,-7.71708
5.37999,-2.34000,160.579
-5.62000,-10.8600,15.2486
-9.04000,-0.86000,72.8681
1.85999,15.8399,-52.7603
11.8199,-13.3600,-47.8282
-0.36000,-0.74000,142.690
3.43999,-14.9600,30.7608
-11.8800,17.2799,68.3338
-0.56000,16.5399,58.2579
1.03999,-0.42000,20.1024
-6.56000,-3.96000,130.414
9.67999,-15.7200,136.160
-14.3200,7.37999,-55.4916
3.41999,24.2599,175.529
8.77999,8.69999,113.441
-4.34000,-15.0600,153.949
-8.52000,-0.60000,102.277
-8.76000,9.93999,-48.1144
-0.36000,12.8599,-45.5337
-13.1200,18.5999,155.976
-3.04000,-5.88000,-55.2607
13.8399,15.2799,-149.218
-1.00000,21.5199,158.605
21.1199,21.3199,78.2826
10.5799,13.3999,-126.129
-2.92000,-17.4000,-31.9217
11.2199,5.33999,-0.07467
-13.2400,18.7999,-99.9238
-10.6400,10.4399,-71.0212
-10.6200,15.7599,-63.0268
6.11999,-10.7000,101.405
-5.60000,21.3799,-149.904
-10.1600,11.4599,-67.2382
12.8399,-5.84000,106.182
-2.62000,9.41999,-177.155
-11.8400,4.09999,169.245
8.79999,8.07999,-29.6835
-8.98000,8.35999,57.2806
-1.58000,-0.24000,113.385
0.55999,-16.7000,71.9855
-11.2200,6.37999,172.740
7.83999,4.69999,-126.443
4.87999,-5.36000,159.370
9.61999,7.93999,-114.773
7.43999,7.89999,-9.92897
-11.5800,20.5799,-179.967
-6.32000,4.53999,94.5282
2.55999,-2.92000,-124.166
10.2799,-10.7400,68.2409
-4.54000,16.4999,-19.5109
10.7199,3.41999,50.3325
-2.62000,-4.94000,-53.7710
11.5799,-9.24000,90.5083
-2.82000,23.4599,133.977
10.4999,11.0999,1.08391
-8.60000,24.6599,138.294
1.31999,21.8399,-144.252
14.1799,20.2199,74.7532
-2.74000,7.55999,159.833
13.3399,10.3399,113.331
-6.66000,-4.38000,149.266
-10.9000,18.9799,64.1889
-4.68000,-15.7000,-80.5632
11.9999,9.59999,94.7457
2.03999,24.7199,93.6445
2.01999,20.9199,86.5168
-4.16000,20.8999,75.7221
-2.08000,-7.22000,-167.187
-1.44000,4.45999,90.5422
-4.74000,-17.8600,78.1789
-2.64000,7.75999,7.37275
13.5399,-2.48000,-57.6100
-5.66000,23.2599,-34.0477
7.55999,18.3799,-92.3434
7.95999,18.7399,-159.832
-3.90000,-9.72000,-106.562
-4.70000,-7.02000,167.723
-6.04000,-11.3000,20.0291
7.13999,3.03999,-78.6100
-13.2000,15.5399,66.3505
-0.36000,-0.74000,142.690
-5.04000,4.17999,43.1690
-11.5600,5.45999,-156.010
-14.8200,0.13999,8.54343
6.31999,-16.0200,-76.7472
1.09999,-3.76000,33.1313
0.37999,0.55999,104.456
5.79999,-1.28000,90.4116
8.41999,-0.06000,-61.1252
-10.8800,0.51999,93.3640
6.13999,20.3799,170.312
-2.62000,4.31999,113.939
5.29999,19.4399,-72.9627
16.0999,21.8199,-34.0407
9.79999,-9.82000,-56.6389
1.09999,-10.4200,-6.24210
7.17999,24.0599,-104.491
-0.66000,-14.0000,-49.9594
-7.94000,-4.78000,77.9100
-7.58000,9.45999,-31.0069
-2.02000,5.89999,-36.2374
1.85999,5.11999,13.6707
14.5999,-2.78000,148.541
10.6999,-10.0000,140.800
-4.74000,-11.2800,118.309
-2.54000,12.5999,142.208
3.67999,-7.86000,163.611
-3.02000,4.83999,165.667
-13.4000,20.2399,-166.615
6.11999,-10.7000,101.405
-9.82000,-11.7200,57.0359
-3.06000,20.1399,13.9672
-6.14000,20.0999,-43.2922
-7.14000,-11.9200,51.9933
-6.04000,-5.20000,-83.6462
4.65999,-6.86000,140.007
9.99999,2.33999,-92.7419
2.87999,-12.2400,-25.2350
-9.70000,-17.3400,82.9546
-9.02000,-4.36000,62.0237
8.29999,22.1799,80.5308
10.0199,22.1199,110.217
-2.00000,0.77999,39.9288
-2.42000,15.9399,106.320
-8.90000,-6.10000,141.060
8.37999,9.33999,-174.180
5.97999,23.8799,146.096
8.43999,21.8999,52.1402
0.29999,-7.24000,-57.8031
1.53999,-15.0800,75.8031
-4.32000,16.3999,144.430
-7.94000,14.5799,-119.865
-6.40000,-16.7400,-10.8770
10.7399,9.89999,-171.511
11.8799,-14.5000,165.631
1.51999,-6.56000,-99.9844
-9.70000,11.9599,134.982
5.17999,-13.5200,90.9536
13.5599,-9.16000,89.7983
-11.9800,-0.58000,28.2158
10.5999,-10.0600,24.5154
1.91999,9.23999,-133.224
11.2799,6.29999,117.497
7.41999,-8.08000,-164.299
-6.38000,-15.9000,-178.445
7.35999,-1.06000,136.804
-5.28000,20.0199,-152.496
0.85999,-13.5000,25.4683
-1.88000,-16.6400,-162.467
15.1199,-6.94000,114.819
9.61999,-3.90000,110.682
4.21999,13.1799,19.9378
-1.24000,-16.2600,47.2599
-5.06000,3.75999,-73.9005
2.01999,8.51999,68.6942
1.53999,-15.0800,75.8031
6.23999,7.65999,-99.4414
-7.56000,7.41999,87.7669
-10.6400,3.81999,-42.5593
-11.5000,14.5399,78.6379
11.7599,-13.7400,-18.5450
-2.22000,26.1599,-91.5448
-3.10000,0.73999,-131.651
-4.64000,25.1799,-127.156
-10.9000,6.99999,-146.918
6.45999,-16.9400,89.4302
-3.74000,19.5399,167.947
-1.58000,-10.3200,-67.8906
-5.38000,-10.1200,84.1484
-7.62000,10.5999,80.5486
7.33999,-3.84000,-147.432
11.3199,17.3999,-137.234
0.75999,16.5799,35.4201
-13.4800,6.05999,10.7641
-0.80000,5.63999,28.0125
-8.74000,9.83999,-4.90209
-8.56000,-6.24000,-97.3173
10.1199,18.0599,158.771
-8.82000,-15.9000,103.089
-5.42000,3.81999,-98.6868
-9.24000,-7.76000,-151.789
-7.34000,5.61999,7.21774
-10.1200,21.1799,-49.9510
6.17999,-7.42000,-175.350
-0.72000,-16.0600,106.460
-8.26000,-1.34000,69.1773
3.55999,-15.1400,-145.222
10.7199,0.19999,-179.400
-12.2800,-2.26000,104.728
-4.26000,-0.30000,-127.243
12.9799,-13.3400,30.7440
-9.16000,18.5399,67.4161
4.97999,21.5399,16.9193
-14.3000,1.59999,4.50797
-9.02000,-9.30000,-52.1520
7.37999,-4.08000,-79.7115
1.73999,-9.46000,-109.396
-14.2000,1.91999,9.18035
-10.8400,18.0199,167.929
-6.62000,9.87999,-0.36422
3.65999,-9.18000,-30.0712
-14.8600,11.8799,-98.2003
-5.36000,-10.2800,132.806
-1.10000,-3.34000,-15.7830
9.15999,7.33999,-3.99895
-2.96000,-8.64000,-125.476
5.03999,-16.2200,-142.394
7.37999,-10.3600,-71.9785
19.6999,-11.1400,161.730
-9.82000,-3.10000,-147.788
7.17999,-2.02000,-150.971
7.51999,24.5999,18.5696
13.5199,19.4199,93.6420
-9.52000,-14.8000,85.0884
