-0.04517,-0.19344,8.20589
0.19891,0.06523,-2.94995
0.11207,0.10857,2.25655
-0.21088,0.39303,-19.0241
-0.28026,0.17876,-7.83998
0.08219,0.20994,-11.9172
0.04758,0.23279,-6.02429
0.03047,-0.21224,8.89131
-0.09841,0.00709,-18.8626
0.21064,-0.56528,5.10327
0.53022,-0.04448,-9.06404
-0.32275,0.13319,-9.76437
-0.27913,-0.37394,0.81340
-0.23380,0.54813,-11.1607
-0.09680,-0.05825,-14.2445
0.11406,-0.08293,-10.8151
0.41304,-0.81850,0.71054
-0.41028,-0.09404,0.54606
-0.62643,-0.32016,8.81900
-0.27525,-0.11517,19.2066
-0.35973,0.89724,-5.88747
0.20476,0.27905,-7.41720
0.45542,0.39299,22.6725
-0.22118,0.25957,-1.50102
-0.47706,-0.21105,-22.6827
1.32001,-0.10916,0.00965
-0.34158,-0.28349,-1.61050
-0.18711,-0.58976,8.49557
-0.10520,-0.96819,-9.88933
-0.59738,-0.23403,-8.57074
1.05126,-0.03225,-7.26749
-0.53523,0.15884,9.76912
-0.17866,-0.30693,0.67417
0.05720,-0.59251,-5.38271
0.99543,0.30381,24.3110
-0.20158,0.18982,12.1312
0.28303,0.46523,1.00059
1.04767,-0.29963,16.0186
0.08268,-0.27771,3.24150
0.16512,-0.47116,-8.85822
-0.03492,-0.09186,10.3460
-0.19116,-0.27617,7.80883
0.17558,-0.92841,25.6272
-0.09345,0.28972,8.08041
0.09383,-0.20330,-4.00195
-0.02810,0.02215,-1.44753
0.06272,-1.02124,-15.6225
0.55202,0.09284,-3.93276
-0.12673,0.12086,20.1426
0.66904,0.97781,-16.3206
0.31656,-0.33379,9.26487
-0.41325,-0.80274,27.4477
-0.01451,-0.10843,0.02669
-0.20193,0.07970,-10.6228
-0.18512,0.04453,-0.97992
0.17247,0.07304,2.16460
-0.05201,-0.61959,-6.64676
-0.05962,-0.20030,13.4352
0.40941,-0.12888,1.97984
0.21065,0.33000,-5.73583
1.11118,-0.08223,2.72081
0.51476,0.08349,13.1382
0.31550,-0.49621,-5.73241
-0.09624,-0.62320,13.1072
-0.09740,0.14357,-9.13134
-0.85794,-0.59629,5.24590
0.10079,-0.75561,-10.9920
0.50597,-0.16877,-28.9008
-0.96864,0.33163,3.76855
0.50333,-0.38815,6.03666
1.04783,0.34952,-24.4771
-0.17204,-0.59791,-0.21864
-0.61225,0.05424,0.69365
0.29766,-0.68836,8.39506
0.74416,-0.29842,-11.9287
-0.03307,-0.12581,2.37498
0.25175,-0.39049,-9.50857
-0.30863,-0.26627,-0.68759
-0.41711,-0.44189,-19.1304
-0.19595,-0.24142,-4.66556
0.19950,-0.33375,-3.05749
0.69568,0.40049,5.57597
0.28315,0.03102,14.1391
0.46657,-0.23316,7.24612
-0.40431,-0.11620,13.0205
-0.04549,-0.02917,-0.77221
0.23008,-0.10879,-3.88763
-0.91792,-0.77968,31.9613
-0.51907,0.26353,-6.62012
-0.53857,-0.84626,-6.43064
-0.33295,-0.35731,-2.52203
-0.24248,-0.14612,-16.9402
0.41850,-0.62758,4.86995
0.02276,-0.43755,-1.60913
0.57859,0.25498,11.3336
0.72296,-0.54653,6.92803
0.61210,-0.39208,32.0421
0.68071,-1.59912,31.5847
-0.04508,0.12944,-9.95480
0.23902,-0.46357,32.7612
0.31925,-0.71295,-6.06351
0.76303,0.13329,-31.6521
-0.55726,0.13010,0.47768
0.21960,1.31630,2.10111
0.01952,0.13794,25.1164
-0.47963,0.03530,-7.91101
-1.06916,0.27763,-6.33277
0.05799,-1.07467,-0.92632
0.79605,-0.61527,-2.31820
-0.01451,-0.10843,0.02669
0.13058,-0.07000,2.50112
-0.13379,-0.38181,12.1703
0.01817,0.04097,-0.63204
-0.48080,0.70417,2.90892
0.51663,0.95171,-5.43537
0.40292,-0.41049,-15.9033
-0.52735,-0.23527,-10.1719
-0.51016,-0.36783,-4.59565
0.09349,-0.25510,-8.22741
0.04832,0.49927,-11.9041
-0.55567,-0.28223,-41.8578
-0.47614,0.42562,-15.0593
-0.96757,-0.05200,11.6039
-0.56002,-0.96770,-14.7437
-0.18632,0.65849,9.65495
-0.52248,-0.08917,7.28060
-0.91932,0.44102,9.61891
-0.43030,0.19031,8.31497
0.63405,-0.29121,3.62221
0.15344,0.44176,-13.1655
-0.15680,-0.37088,8.85933
0.27634,-0.00334,-3.74327
0.47941,0.38963,-7.32170
-0.05626,0.29866,-6.55818
0.25268,-0.10595,-1.98209
0.41124,-0.10638,-1.81064
0.22666,-0.37254,-4.78702
-0.19158,0.48332,-11.0979
0.95334,0.61269,-7.78583
0.12103,-0.53573,19.2937
-0.84726,-0.80530,-0.48995
-0.34264,-0.18676,-4.27255
0.42784,0.63005,14.4064
0.35716,-0.16474,-9.94166
-0.25280,-0.53454,22.6673
0.44360,-0.25760,5.22369
0.12128,0.26573,-4.72370
-0.75453,0.50590,13.6093
-0.30201,-1.33650,-15.6232
0.00072,0.44927,-22.3059
-0.31389,0.06415,2.11035
0.56091,0.08014,11.8481
-0.97755,0.03338,32.3974
-0.23933,0.11754,-1.63091
0.91007,-0.17136,-14.7335
-0.03932,0.15383,16.3056
-0.56297,-0.21645,-5.46371
-0.99431,-0.14051,2.57161
-0.10240,-0.15212,18.8081
-0.44505,0.05542,-6.99439
0.00029,-0.09512,18.1207
-0.03635,-0.11717,3.54095
0.93115,0.48263,14.1330
-0.12830,-0.58157,-21.3101
-0.87628,-0.28507,-15.0720
-0.09040,0.79861,2.37750
-0.59007,0.13477,-3.03295
0.17999,0.26202,4.61044
0.27784,-0.48066,44.1619
0.81808,0.55944,-14.1196
-0.62149,-0.07595,0.96136
0.47342,0.25256,-2.16236
-0.29644,0.15831,4.38613
0.26468,-0.03791,-19.4950
0.10060,0.04727,-4.48245
0.12253,0.85632,-17.5371
0.46297,-0.64125,5.72785
-0.12422,-0.06662,-2.75969
-0.39642,-0.61529,19.5689
-0.50263,-0.53884,8.87402
-0.79146,0.36193,-8.36040
0.01173,-0.93512,-3.50535
0.00932,0.65742,-1.84346
-1.04934,-0.51960,6.35360
-0.73849,-0.18952,-44.4353
-0.14588,-0.83802,10.2958
0.02859,0.42031,23.2139
0.02267,-0.12922,-23.4507
-0.73365,-1.06484,-18.9708
0.45350,0.13191,7.13737
0.27932,-0.92386,-6.15705
0.45511,0.65639,6.92768
-0.20800,0.06013,20.6194
0.48934,-0.68448,6.73772
0.21565,-0.13696,-3.07797
-0.18553,0.02567,5.58432
-0.02242,-0.78834,-3.89079
0.02170,-0.15379,-4.18952
0.09181,-0.30093,-9.47694
-0.86160,-0.14950,7.26386
-0.79785,-0.01140,-7.79107
-0.02996,0.49839,0.76812
0.32810,0.29210,-4.86547
-0.47856,0.55260,-14.9541
0.46297,-0.64125,5.72785
0.05593,0.86134,0.54833
0.14992,-0.08285,-2.91065
-0.23296,0.27447,-7.67631
1.10865,-0.06674,-1.41765
0.12250,0.27460,-3.29509
-0.05559,0.56337,-15.7004
-0.25071,-0.33704,-18.1329
-0.98580,-1.24840,-6.79124
1.06209,0.13234,-19.4885
0.44978,-0.12165,9.76421
-0.39257,0.09412,-7.15530
-0.00432,0.23702,7.84452
0.58227,0.74523,16.2176
0.33263,-0.01675,14.4456
0.22759,-0.18617,-0.81715
0.66720,-0.07753,2.77287
-0.49112,-0.76651,4.20601
-0.30484,-0.71901,-4.91864
0.29136,-0.12342,-23.7113
-1.35261,-0.04586,4.65789
-0.05962,-0.20030,13.4352
0.01161,-0.65295,0.63125
-0.78439,0.23784,-19.8570
-0.10520,-0.96819,-9.88933
-0.17375,-0.08382,7.29447
0.44287,0.13932,22.0321
-0.06706,0.33045,22.2733
1.27126,0.44945,0.90851
-0.13376,0.32949,24.3099
-0.70474,0.25809,12.5339
-0.28513,0.32028,-2.79469
-0.63587,0.75443,-30.6849
0.27374,-0.55216,-11.6460
-0.02810,0.02215,-1.44753
-0.69434,0.11915,10.0423
-0.31958,-0.07422,-8.70668
0.19102,-0.47540,-4.89326
-0.16072,0.99171,-4.58439
0.27742,-0.53242,-2.66985
0.62024,-0.10000,16.5412
0.24027,-0.64960,4.35866
-0.30493,0.79132,-0.70191
0.46460,-0.51906,5.01621
0.17851,-0.06688,-26.6769
-0.30232,0.46763,34.8513
0.74111,0.06788,0.50065
0.14712,0.23488,-5.50402
-0.36687,-0.16957,21.5590
-0.45068,-0.80490,19.8211
0.16279,-0.86681,1.15694
-0.26099,0.67052,6.44298
-0.32633,-0.31148,13.8782
-0.08586,-0.02997,-22.7699
-0.00280,0.20732,13.3882
0.17405,0.27792,-7.70217
0.15375,-0.94266,-1.28658
-0.97755,0.03338,32.3974
-0.54578,0.79368,-7.97372
-0.77507,0.41874,-6.33835
0.35450,0.13789,28.8795
-0.58348,-0.93947,-5.52130
-0.09923,0.12687,1.14787
0.98723,-0.39929,-7.84711
0.34737,0.30706,-6.23367
-0.10594,-0.56938,9.06974
0.98648,-0.21965,13.4600
-0.11479,-0.50043,-2.95133
0.41916,-0.62593,3.64098
0.04990,0.11956,3.68548
0.08267,-0.45097,14.9866
-0.02842,0.07094,0.12291
-0.66430,0.66673,-18.9109
-0.19295,0.30784,-4.99697
0.35689,0.03918,-0.45677
-0.15340,-0.01257,-39.5887
-0.63337,0.04388,-2.08649
0.19949,-0.34120,-3.25765
0.05509,0.13369,-5.63948
-0.12825,-0.43591,-19.6304
-0.05947,0.07880,18.9086
0.76876,-0.06877,-0.26631
-0.30397,-0.05506,-22.3043
-0.61578,1.01639,14.2151
0.21065,0.33000,-5.73583
-0.43215,0.84587,13.4359
-0.43682,-0.11847,2.56328
-0.34953,0.00764,-0.85625
0.08112,-0.32104,2.37485
0.13054,-1.36500,10.6165
0.14880,0.45890,12.7448
-0.47706,-0.21105,-22.6827
-0.07673,0.14749,-19.4560
-0.12386,-0.04809,-2.65041
0.32507,0.43034,-12.8505
0.42498,-0.42039,-4.21301
-0.01522,-0.68076,24.2004
-0.04804,0.04325,-14.8572
0.60779,-0.02718,6.49345
-0.62071,-0.35319,3.65789
-0.26274,-0.62116,9.27661
-0.61456,-0.03442,4.61203
0.44531,0.21713,-2.93438
-1.43082,-0.33435,-14.9273
0.52225,0.04683,4.82390
0.40258,0.79220,23.1359
0.35658,1.07041,-16.2544
0.35689,0.03918,-0.45677
0.08097,0.12430,-0.69395
0.31266,0.39345,-30.0646
-0.72896,-0.39240,12.4753
0.04821,-0.23550,-9.37163
0.34573,0.02034,5.36682
-0.21773,0.85582,20.8575
0.64927,0.32486,-39.9634
-0.56063,-0.84606,-1.93634
-0.79402,0.08390,1.75920
-0.38450,-0.41304,30.8652
-0.07495,0.12723,-3.94698
-0.63061,-0.07933,-22.8152
0.52585,-0.74829,-4.40530
-0.32445,-0.01431,-5.26084
0.15726,0.15862,45.6851
-0.59743,-0.11730,22.9868
-0.95177,-0.18247,0.65038
0.46298,-0.38642,-28.9081
0.34083,0.06461,10.2019
0.47061,0.14213,-1.71602
-0.67887,0.38699,-20.9498
-0.04804,0.04325,-14.8572
-0.50714,-0.43249,16.2371
0.42512,-0.29583,-23.3713
-0.14714,-0.15698,-0.73414
-0.45412,0.23884,22.2447
-0.11039,-0.19030,-10.3044
-0.18334,0.03496,11.2106
0.24452,-0.33014,-13.1155
-0.56918,0.45256,5.89852
0.59725,0.08583,10.2163
0.66092,-0.32104,8.36712
0.01402,0.23702,0.41138
0.14743,1.18663,-22.1418
-0.50175,-0.31051,2.92918
-0.00124,-0.07856,21.9622
0.67239,-0.03282,5.09909
0.19392,0.05223,7.57685
0.76303,0.13329,-31.6521
-0.20920,-0.34137,-1.83497
-0.29582,-0.14833,2.03957
-0.03654,0.52803,-11.5806
-0.00989,-0.75295,24.0710
-0.05831,0.03447,-6.25258
0.26260,-0.17936,1.10385
-0.15559,0.04324,-1.83502
0.19477,0.10716,-4.27375
0.76088,-0.10718,0.53510
0.50333,-0.38815,6.03666
-0.32528,-0.28579,5.34909
-0.26150,-0.22513,-13.1044
0.09552,0.37956,-13.3634
-0.24387,-0.98706,-13.4321
-0.34071,-0.24883,6.85082
-0.00301,-0.16421,2.24801
-0.27336,-0.00321,-0.72546
0.53052,-0.16280,5.01721
0.98878,0.56865,-2.86344
1.18746,-0.19639,13.1931
0.13102,0.45157,4.04166
0.62633,0.66307,-11.4746
-0.06011,0.12658,10.9686
-0.22126,-0.64101,2.91526
0.14785,0.00238,-14.2374
-0.32221,0.19690,-11.0322
0.21147,-0.94940,3.09140
0.05344,-0.27037,2.57370
-0.38787,-0.73695,-18.1565
-0.04503,0.42069,10.9787
-0.01581,-0.19986,-2.47550
0.33693,-0.97536,-9.95849
-0.85072,0.17769,6.21481
-0.57945,-0.70322,-28.5671
-0.80786,-1.01370,15.1449
0.21565,-0.13696,-3.07797
-0.01177,-0.41640,-10.0155
-0.23487,0.24268,1.74914
-0.34874,0.09612,12.6799
-0.16490,-0.40292,13.3693
-0.68164,-0.10610,2.99327
0.07807,0.36992,-7.84300
-0.03654,0.52803,-11.5806
-0.48386,0.55343,9.98775
0.06008,-0.15934,0.71604
0.01691,-0.27673,-6.78100
-0.15709,0.51257,2.27242
0.58281,0.09653,-4.18638
0.53566,-0.61242,14.1169
0.20768,0.12790,21.9776
0.84801,0.34222,-10.1031
0.31656,-0.33379,9.26487
-0.94080,-0.11773,7.75721
0.80579,0.02087,-0.78704
-0.00301,-0.16421,2.24801
-1.00369,0.59926,-6.11953
-0.06928,-0.07261,2.30044
-0.19732,-0.04619,-1.27835
-0.03492,-0.09186,10.3460
0.46460,-0.51906,5.01621
0.11207,0.10857,2.25655
0.00357,0.45939,-1.21687
0.51224,0.05937,-18.6442
0.25105,-0.72600,-12.1879
-0.19229,-0.61136,0.82524
0.19650,-1.05680,-17.3026
0.07131,-0.19077,20.2946
0.09636,-0.11101,-4.66352
-0.12386,-0.04809,-2.65041
0.25357,0.10584,-30.8721
0.40977,-0.25407,11.7292
-0.05354,0.07224,1.75775
0.02554,0.72780,5.33093
0.27054,0.04891,6.53820
-0.18117,0.21912,-1.75244
0.32915,-0.10666,11.7334
0.38426,-0.13359,3.19396
0.12115,-0.31430,-10.9425
-0.62149,-0.07595,0.96136
0.17824,0.07324,38.1208
-0.66333,1.02430,17.7103
0.24048,0.33989,18.1740
-0.13169,0.15768,-3.25960
0.00556,-0.04555,14.8417
0.16787,0.10867,-2.74682
0.38159,-0.25545,-25.5184
0.21848,-0.84376,17.4847
-0.92042,0.16247,-0.84874
-0.37696,0.04179,-22.6363
-0.24299,-0.24359,4.50235
-0.27336,-0.00321,-0.72546
-0.07594,-0.68854,-3.84161
0.10046,-0.23036,-19.4955
0.62951,-0.18120,-5.27014
-0.25930,0.22382,13.0543
-0.47136,0.58800,-31.0415
-0.11359,0.23754,10.8984
-0.66430,0.66673,-18.9109
-0.01424,-0.84083,-4.14987
0.34195,0.44686,29.4025
-0.32999,0.63641,0.49134
-0.19158,0.48332,-11.0979
-0.39642,-0.61529,19.5689
0.43841,0.98720,36.4859
-0.92978,0.20283,16.8994
-0.30940,-0.81222,-1.02733
-0.10463,-0.38431,4.39436
0.43256,-0.06417,2.06826
0.00034,0.02468,25.0055
0.40931,-0.57406,-8.53348
-0.08290,-0.11756,8.13182
0.62713,0.65360,-7.48760
0.04577,-0.04036,-0.69041
-0.50840,0.85408,-7.07744
0.33841,-0.40514,12.8048
-0.64412,0.05961,-7.91800
-0.57756,-0.12504,5.66675
0.27874,-0.67753,-3.88921
-0.69370,0.53658,-11.6543
0.90898,-0.30833,-11.8878
-0.28486,-0.09808,-7.11376
-0.24900,0.05929,3.72581
0.00617,0.19811,7.82394
0.10583,-0.64616,-2.93701
0.62502,-0.50271,3.57285
0.10004,-1.24731,26.4288
-0.09191,-0.32833,-0.47942
0.34523,-0.19298,-12.6187
0.35644,-0.15527,4.42827
0.04821,-0.23550,-9.37163
0.07590,-0.90903,-20.6091
0.11033,-0.46506,-13.3516
0.02517,1.03017,-18.7517
0.22872,0.11595,-6.39414
0.32516,-0.27543,28.1260
-0.41325,-0.80274,27.4477
0.43684,0.36306,-4.54735
-0.65166,0.25164,35.6587
0.20516,-0.85063,16.5385
1.02411,0.74845,-24.4021
0.88546,-0.22975,-6.89368
-0.49245,-0.59211,1.75491
0.10135,-0.97156,14.6581
-0.05964,0.05833,0.68578
-0.04873,-0.02529,-11.2113
0.24709,-0.65696,16.9312
-0.13469,-0.06954,-9.66680
0.12334,0.69172,-1.74308
0.55202,0.09284,-3.93276
-0.34715,0.43211,12.4343
0.58773,0.13035,22.6737
-0.35144,-0.21688,14.9035
-0.38412,0.38568,-32.9387
-0.58477,0.58874,37.2807
0.24105,0.09821,-13.4020
0.13058,-0.07000,2.50112
0.04541,-0.26987,-19.0910
-0.48673,-0.06558,10.6185
0.32586,-0.10620,28.3735
-0.89297,-0.18203,-9.57678
-0.54982,0.27223,-0.39513
0.78766,0.11673,15.6727
-0.12386,-0.04809,-2.65041
-0.06968,-0.21074,-6.12569
0.08267,-0.45097,14.9866
0.12973,0.01612,1.53135
0.27006,-0.06002,20.8637
-0.31682,0.16233,5.88012
-0.31893,-0.00864,15.1368
-0.37781,-0.21896,10.6093
0.78296,0.02426,-4.46468
-0.35383,0.22129,4.32818
-1.11915,-0.01924,3.61475
0.69623,-0.06079,5.34331
0.84801,0.34222,-10.1031
-0.46115,-0.25060,-8.19775
0.35196,0.62757,19.6794
0.40537,-0.30652,10.2135
0.98296,-0.69184,2.67398
-1.10711,0.53681,-3.09172
0.31690,-0.13881,18.1822
-0.03722,0.04776,1.30585
0.05799,-1.07467,-0.92632
-0.76068,-0.72254,-10.2823
0.29024,-0.13133,-4.98866
0.46939,0.39087,-22.7275
0.34230,0.65337,-3.39850
0.22445,0.46668,10.5633
1.32641,-0.00542,8.97225
-0.00921,0.31120,-8.39794
0.94374,-0.97312,-5.82709
0.41399,-0.08901,10.7855
0.06103,-0.11334,3.52752
0.11218,0.42992,-7.37834
1.58317,0.11031,-1.20603
0.84969,-0.03091,-2.67171
-0.30037,-0.46674,-14.8690
0.19102,-0.47540,-4.89326
0.93508,-0.05112,-14.8242
-0.73679,0.13006,2.07157
0.14877,-0.34072,-9.18165
-0.27023,-0.30390,-25.6117
0.24452,-0.33014,-13.1155
-0.67454,-0.45531,-9.55370
0.22666,-0.37254,-4.78702
0.44645,-0.17729,-29.8077
-0.56297,-0.21645,-5.46371
0.03546,0.14311,13.2287
-0.28631,-0.14745,5.74892
1.10762,-0.52492,28.1398
0.10001,-0.06937,-31.8512
-0.31101,0.58884,-5.55421
-0.18512,0.04453,-0.97992
-0.46455,0.05937,-4.58150
-0.73886,0.23062,15.9439
0.76303,0.13329,-31.6521
0.10060,0.04727,-4.48245
1.09865,-0.29561,6.62603
0.31028,-0.29363,-19.1527
-0.54982,0.27223,-0.39513
-0.36092,-0.08429,1.69218
-1.03107,-0.10746,3.98729
0.16466,0.02342,19.2337
-0.19097,0.08494,35.0519
-0.92373,0.50438,9.52408
0.84841,1.65013,-5.63921
-0.41568,-0.09493,-13.8705
0.07241,0.63414,11.8957
0.83260,-0.54506,18.8586
-0.08043,-0.18196,-1.41577
-0.24586,0.05270,-12.6948
1.03457,-0.35410,2.24599
-0.02304,-0.54102,20.8757
0.16725,0.30453,-4.21340
0.52001,0.00057,6.75751
0.02593,-0.64790,5.04210
-0.17975,0.01299,12.6572
-0.32917,0.01944,-11.5480
0.71249,0.43882,-15.1226
-0.10240,-0.15212,18.8081
0.59030,-0.54653,16.1962
0.03889,0.08063,9.79990
0.27733,-0.57061,19.2768
0.30347,0.25758,-3.89229
-0.00124,-0.07856,21.9622
-0.62915,0.08770,16.6371
-0.79907,0.03261,-13.8076
-0.36590,-0.05283,31.3406
0.29092,-0.76821,0.02395
-0.00855,-0.79787,22.4166
-0.24754,0.58711,-14.0993
0.18651,-0.12232,22.9938
0.04666,0.63044,8.87884
-0.50591,0.19368,-12.8153
-1.11202,-0.32688,2.35381
-0.18871,-0.55990,4.89685
0.86137,-0.19464,-8.99316
0.36478,-0.10763,-0.00101
-0.03570,-0.90899,-18.9486
-0.95599,0.04007,0.19003
0.58020,0.20106,-7.90148
-0.45844,-0.12175,-0.91605
0.75800,-0.72114,12.7416
0.25175,-0.39049,-9.50857
0.00112,0.05411,7.52900
0.10587,0.36130,-14.1750
0.39227,0.17797,-2.33858
-0.08545,-0.05839,4.60652
-0.31452,0.80195,34.2394
-0.63396,-0.10297,-6.22830
-0.38751,0.04385,16.6409
0.21932,0.42963,-17.9751
0.14084,0.33156,-0.47244
-0.03988,0.12918,4.15150
-0.28032,0.20519,11.8060
0.62435,0.23718,15.5980
0.12908,0.60867,-19.5933
0.58451,0.20787,10.7616
0.19891,0.06523,-2.94995
0.09956,-0.65861,-4.04151
0.41889,-0.47560,1.58408
0.40087,-0.03330,14.3612
0.41258,0.22235,-4.01950
0.24709,-0.65696,16.9312
0.83038,-0.29507,27.2832
0.43430,0.37841,-4.56949
-0.70821,-0.54896,-16.5037
0.45794,0.58993,-4.90671
-0.36705,0.30948,-11.9003
-0.08788,0.13505,5.43341
0.00416,-0.81761,22.8630
0.00212,-0.18310,10.3501
0.37916,1.29876,-12.3067
0.34523,-0.19298,-12.6187
0.32710,-0.21825,-27.3065
-1.96568,0.66141,-20.4584
0.00726,-0.03038,0.78127
-0.02586,-0.09825,5.14109
-0.46795,0.14703,8.36363
-0.09105,-0.34849,-7.98180
-1.43082,-0.33435,-14.9273
-0.25194,-0.33306,-14.9941
-0.03957,0.42158,15.4511
-0.24390,-0.00576,0.54982
-0.16072,0.99171,-4.58439
-0.25954,-0.16896,-1.08444
-0.15982,0.16845,-7.81235
0.23902,-0.46357,32.7612
0.47993,0.35366,-12.9984
-0.04459,0.05063,25.2984
0.19379,0.36474,-20.6760
0.49176,0.31608,23.1812
-0.37283,-0.51267,-20.0334
-0.46250,0.11576,1.80184
0.28760,0.13761,42.4397
0.42070,0.06376,8.60999
0.36053,1.50479,-16.9740
0.65001,-0.99415,-3.44862
0.37823,-0.09423,-5.88550
0.82066,0.13964,1.99449
-0.15059,0.08691,2.07598
0.13897,-0.02221,-6.41727
-0.38659,0.34310,12.7124
-0.17978,-0.22434,24.4159
0.38902,-0.15361,37.6921
-0.49811,-0.08312,-20.2255
-0.39334,0.12934,8.08631
-0.67454,-0.45531,-9.55370
-0.64688,0.35996,-7.29149
0.29305,-0.63611,-18.3731
0.49330,0.45845,5.38677
-1.98084,-0.86276,12.8382
0.46560,-0.01351,-1.71233
0.01649,0.03180,-1.27974
0.20384,0.23180,42.3570
-0.15982,0.16845,-7.81235
0.83042,0.48875,18.1459
0.07479,0.57313,12.3830
0.29174,0.11809,15.9836
0.09791,0.84905,12.4216
0.11033,-0.46506,-13.3516
0.97512,0.06933,13.4637
-0.71277,-0.09881,-3.73424
0.71599,-0.64333,10.9225
-0.69751,0.17934,-13.1034
0.05815,-0.11287,8.31876
0.36986,0.74877,-13.6016
0.05250,0.08409,10.1205
-0.17375,-0.08382,7.29447
0.31707,0.74175,6.89601
0.03115,0.13089,-1.63916
0.05393,0.10118,-0.21991
-0.83131,1.31832,10.8976
-0.87624,0.27695,14.8532
-0.22622,0.43234,7.70500
-0.23539,1.01692,-4.27010
0.00932,0.65742,-1.84346
-0.00393,-0.52235,-9.26969
-0.01802,0.87948,-1.76778
-0.00111,0.25455,-6.53986
-0.28486,-0.09808,-7.11376
-0.73466,-0.41335,-15.6844
-0.48712,1.14593,1.35587
0.14027,0.01766,-0.59073
0.12502,0.18969,-1.79738
0.36601,0.09010,-10.2904
-0.44486,0.19064,3.30956
0.52412,0.61097,-4.04522
-0.12986,0.58293,-8.34674
-0.22450,0.81658,30.9619
-1.15865,-0.52447,-1.46133
0.25681,-0.04413,-26.2187
0.44941,-1.01451,18.0859
-0.66297,0.16903,-4.54078
-0.45844,-0.12175,-0.91605
0.57358,0.47490,-8.59493
-0.08759,0.13793,12.1357
0.04382,0.40523,4.99279
0.75102,-0.01776,-0.39152
-0.30611,0.54184,5.14609
0.61974,1.04934,8.14941
-0.34704,0.13729,7.96623
0.14381,-0.28924,2.10232
-0.64162,0.20811,-16.6335
0.51041,-0.01307,3.22387
0.11033,-0.46506,-13.3516
-0.94178,-0.01984,12.3600
-0.59078,0.94933,6.28739
0.43256,-0.06417,2.06826
0.46755,-0.71261,-7.65664
-0.52194,0.02097,-8.62383
-0.18564,0.32571,-10.6231
0.72437,0.09500,-6.33564
0.28407,-0.05294,11.6257
-0.76972,-0.38960,-2.04868
0.56434,0.21092,16.1156
0.50432,0.40534,-27.1673
-0.01644,-0.08647,-8.07350
0.19111,-0.86733,-2.48144
-0.37124,-0.46100,-8.11598
-0.41165,-0.03587,6.42820
0.36220,-0.02630,3.44754
-0.58494,0.19169,3.67287
0.73278,0.49365,-19.2899
-0.65862,0.05752,-3.34822
0.07178,1.02829,-22.7909
0.03267,0.39237,22.7762
-0.65320,-0.85840,-5.66103
0.29203,0.13996,1.84438
0.42564,-0.27853,8.51625
-0.25446,-1.04697,14.2429
0.61210,-0.39208,32.0421
0.20349,-0.17035,13.0606
-0.85303,0.22071,27.0856
0.38336,0.86809,-14.9677
0.16944,0.05218,2.87002
-0.44153,-0.02605,-17.8295
-0.36626,-0.43614,27.0195
-0.64123,-0.02580,14.0094
0.44645,-0.17729,-29.8077
0.11481,0.21030,-3.27733
0.89825,-0.38003,-9.11075
0.32167,-0.48716,-12.3823
-0.64727,-1.12443,-25.6228
-1.60793,-0.15257,22.0705
0.26721,0.86230,10.4875
0.69690,0.31752,0.16765
0.28407,-0.05294,11.6257
-0.98837,0.35916,-23.7380
0.24252,-0.65660,-8.79918
-1.03925,0.62321,-10.7043
-0.17375,-0.08382,7.29447
0.29504,-0.07240,16.3565
-0.01233,-0.90082,3.62731
-0.06616,0.21658,-14.2302
0.65330,0.10209,-4.44157
0.75102,-0.01776,-0.39152
-0.65718,-0.11627,-11.3057
0.25940,0.00587,1.58173
-0.00230,-0.17268,4.35860
-0.67344,0.07262,-1.21353
-0.85708,-0.63106,14.3889
1.05042,0.06742,-0.54928
-0.14467,-0.52465,-7.90932
0.14739,0.56002,16.7284
-0.81503,0.39369,-22.1838
-0.05831,0.03447,-6.25258
0.43639,0.09204,4.79070
1.23183,0.32307,-8.04880
-0.52230,-0.24086,-27.2695
-0.77109,-1.19823,-10.7664
0.23247,-1.05592,-9.10197
-0.15466,0.05337,14.6382
-0.33136,-0.54068,-5.15654
-0.67243,0.65798,14.9040
-0.65819,0.57190,10.5513
0.67535,-0.26248,0.64012
-0.18512,0.04453,-0.97992
0.51476,0.08349,13.1382
0.63405,-0.29121,3.62221
-0.46455,0.05937,-4.58150
-0.00641,0.20221,1.56422
-0.76157,0.41474,-26.0248
-0.30326,-0.76202,20.4329
0.05560,0.31930,2.43786
0.27816,0.43964,-8.18157
-0.33793,0.67257,5.04321
-0.17204,-0.59791,-0.21864
-0.12116,-0.23484,-4.83755
-0.13988,-1.15375,7.79042
0.30970,-0.14290,31.8047
0.64188,0.19808,-16.1820
-0.60741,-1.00204,7.99202
-0.20054,-0.83910,-18.2614
0.05344,-0.27037,2.57370
0.16647,0.24774,-8.13934
1.15937,0.04186,-3.81806
-0.34879,-0.75291,12.7150
0.83749,0.12410,4.76629
0.06521,0.19313,-12.6516
-1.00784,0.68893,3.00024
-0.27525,-0.11517,19.2066
-0.31682,0.16233,5.88012
0.09439,0.31424,-21.0146
-0.83517,-0.07268,2.02758
-0.19598,-0.28906,-20.4585
0.02267,-0.12922,-23.4507
0.73808,-0.52906,-3.61510
-1.12535,0.28941,-12.2321
0.27509,0.03371,22.5195
0.36601,0.09010,-10.2904
1.01540,-0.40673,30.7522
-0.04757,0.11633,7.63118
0.16125,-0.38129,-25.5565
0.28476,0.06963,10.8229
-0.08191,0.56571,-10.0339
0.94943,-0.98689,2.47870
0.32504,-0.33370,15.6046
-0.04722,-0.25198,3.25355
0.10321,-0.11668,9.74458
-0.37197,-0.22568,-9.20690
-0.82374,0.43291,20.7936
-0.65862,0.05752,-3.34822
0.62713,0.65360,-7.48760
-0.37284,0.05479,-22.8980
-0.18553,0.02567,5.58432
-0.23539,1.01692,-4.27010
-1.12268,-0.32800,-6.63557
1.26337,-0.14322,16.6201
0.16131,0.59327,11.8053
-0.49400,-0.00260,26.9676
-0.56096,0.40319,-14.0704
0.08539,0.22613,4.98470
-0.18563,-0.59406,-13.6885
0.06756,0.50355,-6.16256
0.89377,-0.36338,13.8709
0.35644,-0.15527,4.42827
-0.73046,-0.42442,-6.35153
0.29745,0.32390,11.4631
0.59540,0.13712,-7.67108
-0.02810,0.02215,-1.44753
0.58773,0.13035,22.6737
0.10583,-0.64616,-2.93701
0.70113,-0.33354,13.2736
0.40537,-0.30652,10.2135
0.51395,0.11332,1.35181
0.30113,-0.42308,-2.05050
-0.12918,-0.58895,4.25041
-0.63337,0.04388,-2.08649
-1.20044,-0.81334,-9.91943
-0.64667,-0.76803,-2.27232
0.56091,0.08014,11.8481
0.68010,-0.10930,11.6668
-0.17464,-0.56898,3.46851
-0.66245,-0.01097,-14.2672
0.65557,-0.67643,10.5462
-0.28631,-0.14745,5.74892
0.00029,-0.09512,18.1207
-0.12552,-0.44297,7.06332
0.03739,-0.23464,-11.1497
0.76298,-0.15967,13.7965
-0.28082,-0.81973,-0.90373
-0.52858,-0.28502,2.06262
0.06528,-0.08022,3.96167
0.10321,-0.11668,9.74458
0.43180,-0.14158,8.98591
0.23750,-0.00455,1.54344
-0.14061,0.24573,-21.0593
-0.61329,-0.07558,1.68268
-0.32528,-0.28579,5.34909
-0.24390,-0.00576,0.54982
-0.12161,-0.11264,-6.85120
-0.03414,-0.41481,-25.4049
-0.31970,0.30958,-1.80801
-0.24261,-0.25541,20.7696
-0.47423,-0.38320,26.9692
0.20537,-0.34975,-17.2989
0.46845,-0.12276,-26.6810
0.75003,-0.09283,-0.26702
-0.20254,-0.18571,4.73294
-0.48949,-0.13513,-8.52217
0.18567,-0.66020,-14.4127
-0.87280,0.69540,10.8287
0.99690,0.50315,-18.2871
-0.63532,0.18938,-6.24053
-0.79938,0.22302,-8.07505
-0.94080,-0.11773,7.75721
0.40355,0.35211,19.5276
0.60157,0.24674,10.1422
-0.47759,0.09581,-10.7113
-0.19097,0.08494,35.0519
-0.20089,-0.10654,-1.99410
-0.41042,-0.80394,1.41005
0.15523,0.30480,-30.5095
-0.16574,-0.35188,-1.52696
0.77520,1.54333,-1.30238
0.01709,0.29301,11.2880
-0.48712,0.17646,21.9563
-0.03523,0.05299,22.6491
0.34195,0.44686,29.4025
-0.09923,0.12687,1.14787
0.47035,0.35392,-0.42273
-0.42528,-0.31341,-3.00586
-0.09571,0.14128,0.55662
0.46460,-0.51906,5.01621
0.60570,0.23604,18.6154
-0.01752,0.05504,2.57969
0.20257,-0.53211,15.7904
0.52452,-0.34527,19.8388
-0.10878,0.25985,31.8166
-0.44486,0.19064,3.30956
-0.16234,-0.10399,-6.19243
0.70464,-0.34712,3.07304
-0.77746,-0.32900,3.61056
0.11703,-0.20629,-4.95698
0.10135,-0.97156,14.6581
-0.03957,0.42158,15.4511
-0.59377,-1.15138,-11.9783
0.05332,-0.61042,2.81984
0.27006,-0.06002,20.8637
-0.01581,-0.19986,-2.47550
-0.09836,0.47322,5.40364
0.27304,-0.76956,-12.9191
-0.03227,-0.24484,-8.29311
-0.18751,0.39942,-19.8115
-0.55274,-0.05909,31.7780
0.02973,0.58962,-6.67592
0.34195,0.44686,29.4025
-0.64412,0.05961,-7.91800
1.05927,0.14826,5.05529
0.50737,-0.03844,2.92899
0.91866,0.15903,-15.3502
-0.02586,-0.09825,5.14109
-0.02815,0.11288,-4.52054
0.00932,0.65742,-1.84346
0.20768,0.12790,21.9776
-0.13951,-0.88877,-5.59440
-0.83167,0.24015,-21.0863
0.38159,-0.23113,1.18973
-0.22006,0.24806,-9.44670
-0.47759,0.09581,-10.7113
-0.74298,0.29845,1.06737
-0.02328,-0.07051,1.24275
-0.25188,0.41503,-4.93629
0.85217,-0.59421,-6.02788
1.13745,0.35543,19.4838
0.53421,-0.16969,-13.0760
0.23507,-0.12010,-10.7281
-0.29206,0.93437,-29.6541
-0.74737,-0.47206,-7.55612
0.20516,-0.85063,16.5385
0.92889,0.49832,-13.6076
-0.99212,0.60021,-9.47431
-0.35989,0.14949,-21.2731
0.51902,-0.30697,27.4021
-0.03527,0.50683,3.04557
0.59765,-0.36111,14.0009
0.59256,0.51459,17.8488
-0.23079,0.15657,-24.2820
0.00726,-0.03038,0.78127
0.72017,-0.93050,-17.3383
1.62178,0.24628,-11.8909
0.25558,0.73687,-8.21233
0.18083,0.65274,7.47770
-0.19158,0.48332,-11.0979
-0.01756,1.30613,-4.08269
0.60779,-0.02718,6.49345
-0.42414,-0.48328,14.0355
0.34255,0.68341,-12.3408
1.06318,-0.09893,-20.8333
-0.05686,0.12289,-10.9104
0.27816,0.43964,-8.18157
-0.50175,-0.31051,2.92918
-0.21119,-0.03429,-14.7418
-0.44195,-1.11983,-7.35067
-0.52194,0.02097,-8.62383
0.18841,-0.44350,32.4814
-0.35465,0.03405,16.2521
0.78316,-0.91128,4.85217
-0.25505,-0.03261,11.8463
0.60779,-0.02718,6.49345
-0.53396,0.12080,-14.4930
0.20386,-0.73883,14.5343
1.32641,-0.00542,8.97225
0.36573,-0.22935,14.8205
0.37955,-1.08903,12.0959
0.06486,0.65905,7.99580
1.32001,-0.10916,0.00965
0.34500,-1.08718,-2.78296
0.55434,0.11639,-5.99860
0.97125,0.26648,-7.96332
0.47211,-0.85853,10.4946
0.47315,-0.17214,23.5674
-0.87237,0.51405,28.4184
0.63598,0.06236,-7.69842
0.04832,0.49927,-11.9041
-0.50591,0.19368,-12.8153
-0.56737,0.27422,-10.7362
0.04163,-0.51186,-12.1076
-0.07570,-0.53094,18.8829
-0.14869,-0.03429,-12.7304
0.22898,0.12260,-2.19649
0.17783,-0.02762,-10.0133
-0.11993,-0.17446,-7.11708
0.10225,-0.39535,35.3877
0.69690,0.31752,0.16765
-0.48147,-0.55884,7.72580
0.05332,-0.61042,2.81984
0.01161,-0.65295,0.63125
-0.32767,-0.38001,-1.14233
-0.14423,0.17382,-4.84508
0.47211,-0.85853,10.4946
0.23750,-0.00455,1.54344
-0.26613,-0.04222,-3.22723
0.72686,0.03646,-19.5080
0.14712,0.23488,-5.50402
-0.34326,-0.41555,13.0099
0.14425,0.10366,-3.40232
-0.94080,-0.11773,7.75721
-0.18844,0.45771,-5.40156
0.47397,0.23973,6.84297
-0.54804,-0.56053,5.44596
0.85217,-0.59421,-6.02788
-0.16711,-0.55495,-16.2385
-0.15081,0.06514,-6.16908
-0.16959,-0.11768,3.33476
-0.16933,0.20068,4.31647
-0.09191,-0.32833,-0.47942
-0.12224,0.19055,-2.46935
0.30489,0.07555,-0.83246
0.36457,-0.65192,-15.3842
0.54815,-0.10435,-2.10303
0.20810,-0.12222,-13.5346
0.00090,0.52729,-13.4551
-0.51032,0.24823,-12.7576
-0.52529,-0.42328,-13.8552
0.29504,-0.07240,16.3565
-0.18895,-0.32801,2.13885
-0.22118,0.25957,-1.50102
-0.00013,-0.47042,-26.0949
0.08553,-0.64434,14.2316
-0.23561,-0.68145,-1.26931
0.16545,-0.64592,-23.8302
0.30785,0.11652,9.73441
-0.19319,0.13697,10.6660
-0.05438,-0.30103,-5.02701
0.24328,-0.12629,2.14824
-0.20663,0.08924,-2.72468
-0.13841,-0.77913,-0.27427
0.11033,-0.46506,-13.3516
-0.16428,0.14168,21.8167
0.04149,0.39233,1.12843
-0.17625,-0.02138,5.30553
-0.04325,-0.27917,13.1816
1.06051,-0.35344,-12.9864
-0.38087,0.01232,-1.93529
-0.26192,-0.13922,4.90940
-0.08630,-0.12160,-7.45732
-0.19295,0.30784,-4.99697
-0.27636,0.07119,-0.74019
-0.87476,-0.08794,-11.1642
-0.17683,-0.82136,8.06125
-0.00989,-0.75295,24.0710
-0.34698,0.51691,-10.4092
-0.11643,-0.33244,-9.12280
0.17967,-0.09980,9.10089
-0.36590,-0.05283,31.3406
-0.41028,-0.09404,0.54606
0.06587,0.20192,-2.28114
-0.03523,0.05299,22.6491
-0.25595,-0.06272,10.5465
0.20772,0.15958,1.31539
0.24102,-0.21013,6.38863
-0.13800,-0.66356,14.6647
0.04390,-0.04493,-5.82745
0.42564,-0.27853,8.51625
-0.62149,-0.07595,0.96136
-0.34346,-0.04245,19.0049
-0.52991,0.66039,-8.70116
-0.20254,-0.18571,4.73294
0.32844,-0.18549,5.75516
-0.32162,-0.48328,-30.7268
-0.64551,0.37526,-15.0944
0.03688,-0.71719,9.92008
-0.38407,-0.18501,-2.12481
-0.07459,-0.27393,-20.9818
-0.21776,-0.60097,-10.5955
-0.22595,-0.21366,-16.9275
0.87989,-0.26124,6.41749
-0.36827,0.39713,-5.83224
0.90990,-0.35320,11.4189
-0.13299,0.02711,3.66472
-0.45591,0.09119,-2.68104
0.30331,-0.22211,-6.01698
0.17142,-0.00116,-29.4583
0.03381,-0.31097,16.1272
0.41258,0.22235,-4.01950
-0.02742,0.17241,-2.37318
0.84967,0.18359,8.64838
0.09655,0.03837,-6.51665
0.45831,0.02833,6.50109
-0.56737,0.27422,-10.7362
-0.15982,0.16845,-7.81235
-0.08663,0.13543,-6.35763
0.28787,-1.15569,-12.7452
-0.37458,0.03345,-25.5549
0.06106,-0.25012,3.85380
-0.31595,0.19030,12.7676
-0.12614,0.36956,-25.7076
-0.42801,-0.44242,-12.1154
0.74661,0.34913,-12.2599
0.24075,0.05004,16.9987
0.08268,-0.27771,3.24150
-0.10645,0.57502,-3.90028
0.48485,-0.16044,3.24134
0.21147,-0.94940,3.09140
0.21697,0.38413,-4.42415
-0.25679,0.31921,27.5096
-0.65753,-0.07278,-11.8681
0.42380,-0.22763,14.3925
0.03404,0.52153,-20.8766
0.14243,-0.51581,19.7118
-0.31682,0.16233,5.88012
-0.00700,0.43082,40.5248
-0.06932,0.03085,-16.7732
-0.10944,0.59861,21.2929
-0.78144,0.22882,9.87244
-0.33679,-0.01502,15.9371
0.12202,-0.47614,-3.07461
-0.68550,0.24265,-20.3186
-0.11835,0.42458,-2.89133
0.85217,-0.59421,-6.02788
-0.36362,0.37336,-9.83365
-1.11915,-0.01924,3.61475
-0.69041,0.17489,-3.81694
0.36977,-0.66954,-35.0007
-0.41951,-0.10158,-15.2168
0.25560,-0.98343,2.31900
-0.23919,-0.33070,-13.2809
0.46874,-0.01694,-24.0795
0.02050,-0.59953,-20.9428
-0.02122,-0.15084,17.4541
0.02276,-0.43755,-1.60913
0.14877,-0.34072,-9.18165
-0.15515,-0.60194,12.5605
-0.02304,-0.54102,20.8757
-0.23219,-0.05011,-2.67375
-0.01522,-0.68076,24.2004
0.70464,-0.34712,3.07304
-0.76520,-1.01151,-11.6365
-0.03957,0.42158,15.4511
0.13691,-0.01138,1.70690
-0.72896,-0.39240,12.4753
-0.44535,0.18820,-5.61490
0.22037,-0.76271,-19.0948
-0.03389,-0.14584,6.97513
-0.18871,-0.55990,4.89685
0.25340,0.08609,-39.2505
0.41889,-0.78272,13.7555
0.04600,-0.58274,-1.31127
0.98648,-0.21965,13.4600
0.38517,-0.38002,11.6986
-0.97702,-0.85855,21.5425
0.48370,-0.21527,-10.7916
0.06272,-1.02124,-15.6225
0.21697,0.38413,-4.42415
-0.57755,-0.83839,14.0215
-0.22389,0.69923,8.21518
1.05927,0.14826,5.05529
0.00779,0.51721,5.16288
-0.09345,0.28972,8.08041
0.08097,0.12430,-0.69395
-0.74761,0.02898,0.62066
0.19650,-1.05680,-17.3026
-0.57755,-0.83839,14.0215
-0.20138,-0.57775,-3.82735
-0.30597,-0.23506,3.13077
-0.73679,0.20094,-6.54527
-0.26958,-0.80631,-17.0582
-0.25446,-1.04697,14.2429
1.33882,-0.35787,-8.46964
-0.28026,0.17876,-7.83998
0.11207,0.10857,2.25655
0.25397,-0.20800,32.5256
0.03968,0.04138,24.2268
0.37736,-0.27050,17.1680
-0.00537,-0.41496,-3.20987
0.06521,0.19313,-12.6516
0.82708,0.10436,6.24932
0.78930,0.02043,4.78521
0.72423,-0.31504,8.44397
-0.15746,0.08296,-4.47482
-0.21403,-0.73407,-8.08300
-0.12369,-0.58708,23.2545
0.54997,-0.26225,16.9693
0.47277,-0.14593,12.7650
-0.10614,-0.06414,-7.47556
-0.62384,-0.28822,-4.84348
-0.65718,-0.11627,-11.3057
-0.02465,0.35926,-0.76617
-0.04150,-0.00576,-2.07546
-0.63923,-0.26073,-13.1048
-0.20030,0.35484,-6.43396
0.08221,-0.68534,28.6725
-0.27123,-0.02295,-5.59894
1.05319,-0.03849,20.1742
0.35644,-0.15527,4.42827
-1.09806,-0.05661,-5.48613
0.32102,-0.32391,-10.1646
-0.23107,0.31057,-6.79956
-0.14325,0.52969,8.01597
0.01649,0.03180,-1.27974
-0.56592,-0.29147,-26.6520
0.11624,-0.03753,-4.20979
-0.30484,-0.71901,-4.91864
-0.44364,0.50289,7.94713
0.16462,-0.21895,23.3621
-0.15265,0.07307,-2.35139
0.18356,-0.25674,1.08467
0.27634,-0.00334,-3.74327
0.03266,-0.14003,8.18574
0.72540,0.27430,21.5578
0.66393,-0.64303,-2.74651
1.74304,0.70300,4.58894
0.16406,0.14815,40.3545
-0.52194,0.02097,-8.62383
-0.11643,-0.33244,-9.12280
-0.51443,0.18541,6.01513
0.15438,-0.87888,7.17098
0.30252,0.12938,-5.56963
0.63557,-0.62542,-20.3439
-0.46282,0.03958,5.35377
-0.19401,-1.09267,7.34158
-0.19513,-0.53810,-0.77203
-0.71144,-0.78620,-1.15762
0.22949,0.00784,14.7399
-0.61662,0.18745,10.5405
0.94374,-0.97312,-5.82709
0.83260,-0.54506,18.8586
0.07521,-0.10343,7.12393
-0.04251,-0.06159,4.53083
0.19634,0.03736,-14.6725
0.60570,0.23604,18.6154
0.17335,-0.10145,1.07659
-0.18873,0.11210,1.27385
-0.33422,0.27607,-20.4257
-1.06292,-0.98632,-29.1124
0.05815,-0.11287,8.31876
-0.50175,-0.31051,2.92918
-0.15706,0.18060,-6.71926
0.15874,0.32043,3.21764
0.30918,0.01412,2.14858
-0.26958,-0.80631,-17.0582
-0.00393,-0.52235,-9.26969
-0.97157,-0.45603,-2.22809
0.44291,0.02293,-7.27553
0.09956,-0.65861,-4.04151
-0.83727,0.15225,0.12176
-0.00796,0.17176,-3.17770
-0.15839,-0.29983,6.82483
0.23949,-0.39934,0.02662
0.18343,-0.06526,8.60072
-0.36253,0.01123,14.4376
0.09094,-0.30340,1.94502
-0.48080,0.70417,2.90892
-0.19112,-0.01493,-5.01015
-0.47492,0.32359,-31.4923
-0.62946,0.26193,7.89806
-0.67924,0.60901,-0.51067
0.79797,0.30166,-7.76964
-0.32162,-0.10526,-8.06575
0.82694,-0.46762,-36.2592
-0.36387,-0.46001,4.62026
-0.21522,0.03121,-24.4505
0.11748,-0.23562,1.43561
-0.26296,0.26881,17.5047
-0.27361,-0.35906,-18.1254
-0.11967,1.09297,-9.38919
0.15496,0.00010,-10.1144
0.76407,-0.11412,7.69287
0.62970,-0.46935,25.2663
1.16062,0.31265,-14.4537
-0.75956,0.12678,3.39187
-0.36362,0.37336,-9.83365
-0.17826,0.11439,-6.64046
-0.75433,0.03910,-24.6350
0.31740,-0.71222,-11.8576
-0.24299,-0.24359,4.50235
-0.10645,0.57502,-3.90028
-0.25855,0.32392,0.47684
0.40073,-1.13260,15.6144
-0.32445,-0.01431,-5.26084
-1.09864,-0.36558,17.0669
-0.99832,-0.40844,-15.0952
-0.38407,-0.18501,-2.12481
0.08857,-0.01648,-5.56343
0.31332,-0.83285,1.22774
0.43927,-0.01711,1.32929
-0.27700,0.17830,-17.7202
0.01952,0.13794,25.1164
0.19409,-0.83917,12.3249
-0.30597,-0.23506,3.13077
-1.13850,0.40143,-23.2167
-0.49475,0.19772,-2.18925
-0.28186,0.01647,13.6729
0.42564,-0.27853,8.51625
-0.34889,-0.25254,0.07221
0.06248,0.00415,4.72480
0.73336,-0.99970,-0.48217
-0.16757,-0.17256,1.88829
-0.21132,0.09024,-12.1684
-0.05461,0.29649,0.21733
0.23266,0.50691,23.6806
-0.30421,-0.38451,-16.4365
0.09636,-0.11101,-4.66352
0.95814,0.12502,20.9671
0.44205,-0.59553,-0.11246
-0.02172,0.01441,12.3359
-0.67344,0.07262,-1.21353
-0.41042,-0.80394,1.41005
0.07642,0.09582,-6.17235
-0.58523,-0.31321,18.2336
-0.53716,-0.49570,-13.4174
0.15920,-0.23713,5.21023
0.36676,0.53930,-8.75907
0.14764,-0.31072,0.78777
0.16075,-0.06893,2.31259
-0.21233,0.06149,7.79879
0.92701,0.21694,-16.7722
-0.38777,-0.44182,13.2100
1.07041,-0.34894,1.27636
-0.51203,-0.47912,4.10751
0.40772,0.04715,15.7778
0.10623,0.21050,6.46823
0.09023,0.39597,17.8184
0.51902,-0.23788,-29.8284
-0.06911,-0.59097,14.8309
0.03047,-0.21224,8.89131
0.04905,-0.11529,9.88114
0.18666,0.45001,-11.5802
-0.19116,-0.27617,7.80883
0.13082,0.17254,-8.35123
0.14764,-0.31072,0.78777
-0.20517,-0.15269,1.99377
-0.57706,0.21558,-13.8767
0.23247,-1.05592,-9.10197
0.67594,0.08922,-6.67912
0.49547,-0.65525,-5.37144
-0.66181,0.29103,0.74880
0.32477,-0.10559,-2.67716
-1.08054,-0.35581,-17.5014
0.02606,-0.22876,10.4465
-0.03588,-0.39818,9.43031
-0.53572,0.15640,-15.3172
0.19003,0.12957,-24.8306
-0.35758,0.40449,0.51783
-0.21942,-0.00727,32.7261
0.08404,-0.34797,0.98069
0.40740,1.27289,23.9339
-1.10711,0.53681,-3.09172
0.24616,-0.38584,17.1136
-0.77752,0.10797,-6.98423
-0.10240,-0.15212,18.8081
-0.32356,0.30889,-21.8050
-0.32824,-0.65549,-2.23723
0.00029,-0.09512,18.1207
-0.17096,-0.24199,18.5224
-0.09571,0.14128,0.55662
0.02143,-0.16688,-26.2013
0.31378,-0.23005,-18.3597
0.25117,0.06357,13.5469
-0.13377,0.10964,9.75408
-0.18844,0.45771,-5.40156
-0.52415,0.16397,-13.2402
0.34061,0.02133,43.4724
-0.14829,-0.55660,8.81904
0.49176,0.31608,23.1812
-0.12252,-0.31222,12.8620
-0.51907,0.26353,-6.62012
-0.63611,-0.61278,7.17146
0.19477,0.10716,-4.27375
0.22145,-0.63581,3.96740
0.16161,-0.29834,-22.5404
0.16787,0.10867,-2.74682
-0.45349,-0.90294,-9.62135
0.09271,-0.15143,11.6170
-0.23103,-0.09028,3.38671
0.29719,-0.53485,-2.87312
-0.13679,-0.01607,-2.19819
-0.07358,0.27478,-16.8798
0.15965,-0.18054,12.6732
0.44205,-0.59553,-0.11246
0.10583,-0.64616,-2.93701
0.31737,-0.27869,18.1341
-0.24387,-0.98706,-13.4321
-0.12474,-0.32190,11.6305
-0.29580,0.01941,-19.3713
-0.05937,-0.02344,-12.0518
-0.00280,0.20732,13.3882
0.32377,-0.72340,6.53956
-0.12386,-0.04809,-2.65041
0.09271,-0.15143,11.6170
-0.06706,0.33045,22.2733
0.58536,-0.13740,26.1998
-0.49265,0.54174,11.1871
-0.10601,0.18201,4.97882
0.29916,0.15401,-1.27367
0.27874,-0.67753,-3.88921
0.19903,-0.69865,1.29007
0.11105,-0.16033,9.78578
-0.93691,-0.45385,-17.4836
-0.08997,0.06318,-4.53232
-0.04264,0.50650,16.2897
0.13897,-0.02221,-6.41727
0.17872,-0.21380,-13.2762
-0.64443,-0.52387,4.98911
-0.41711,-0.44189,-19.1304
-0.17715,-0.52864,-10.2574
0.35658,1.07041,-16.2544
-0.53000,-0.03847,-10.0681
0.14225,0.36831,33.0915
-0.41534,-1.03602,-30.2637
0.32586,-0.10620,28.3735
-0.28496,0.52713,-7.40936
-0.98837,0.35916,-23.7380
0.03177,-0.04103,8.74632
-0.17204,-0.59791,-0.21864
0.72686,0.03646,-19.5080
0.13691,-0.01138,1.70690
-0.05354,0.07224,1.75775
0.45214,-0.81678,4.89196
-0.49057,0.45716,-0.87455
0.00617,0.19811,7.82394
0.76088,-0.10718,0.53510
0.69623,-0.06079,5.34331
-0.66691,-0.28184,0.64502
-0.01593,-0.36721,17.4692
-0.29809,-0.08668,-3.42472
-0.04876,-0.23765,22.6154
-0.14662,-0.10501,14.5528
-0.16234,-0.10399,-6.19243
-0.35758,0.40449,0.51783
-1.01727,0.53369,-12.6270
-0.46676,-0.17350,-4.67218
0.22283,-1.06977,-8.63464
0.08080,1.13161,14.4683
0.47210,0.80620,-3.41164
-0.20959,0.16340,-3.03940
-0.17826,0.11439,-6.64046
-0.18512,0.04453,-0.97992
-0.54671,-0.91756,-0.33739
-0.22426,-0.16075,4.27500
0.25268,-0.10595,-1.98209
-0.40320,0.73462,1.46799
0.22981,0.04829,-5.68084
-0.64162,0.20811,-16.6335
-0.02842,0.07094,0.12291
-0.00635,-0.16715,14.6798
0.82748,0.26438,-7.86225
-0.22070,0.74194,-3.27193
0.05364,-0.28625,9.15329
0.18577,-0.52455,8.48702
-0.64674,0.09860,-0.43898
-0.28868,-0.61252,-15.1026
-0.43162,-0.49838,10.2479
0.83063,0.28288,-15.1172
-0.64221,-0.22418,-27.9653
1.13745,0.35543,19.4838
0.18931,0.15862,24.8819
-0.32275,0.13319,-9.76437
-0.33781,-0.18545,-13.9849
0.10980,-0.19879,4.18653
-1.11915,-0.01924,3.61475
0.19523,0.05406,11.3431
-0.76068,-0.72254,-10.2823
-0.59078,0.94933,6.28739
-0.05317,-0.40841,23.6206
-0.30461,-0.66900,2.88755
-0.35879,-0.49561,10.9736
0.22893,0.51063,-8.05907
0.22681,-0.56397,0.17650
0.32590,-0.73155,21.0578
-0.49416,-0.18072,-12.6560
0.62502,-0.50271,3.57285
-0.40157,-0.13070,10.9440
-0.30936,-0.56568,2.24474
0.20382,0.02894,19.4819
-0.15068,0.05951,5.05801
-0.47592,0.23050,13.6066
1.17438,-0.37945,28.8401
-0.04549,-0.02917,-0.77221
0.30329,-0.87032,-7.05131
-0.44788,0.31011,-17.7012
0.09575,-0.03186,-32.6292
-0.38777,-0.44182,13.2100
0.62094,0.03827,5.37977
-0.06875,-0.32085,18.5041
-0.23195,-0.20592,3.87830
0.13194,-1.02541,2.58313
0.09552,0.37956,-13.3634
0.27742,-0.53242,-2.66985
-0.46201,-0.37627,8.92848
-0.16666,0.09207,-2.89930
0.32697,0.46836,44.7188
0.27008,0.84064,3.93942
-0.50263,-0.53884,8.87402
-0.21697,0.81886,4.02939
0.38314,-0.31064,-9.91792
-0.30147,0.08333,-3.09393
-0.34883,0.01583,2.95135
0.20619,-0.30589,15.6562
-0.17942,-0.35112,12.8479
-0.04639,0.52528,-1.48241
0.36597,0.29053,-24.5448
-0.96234,-0.11222,-0.34025
0.18741,0.47525,-7.42672
0.45337,-0.07625,1.16053
0.00160,0.47108,-9.11395
-0.07446,0.03975,-3.88788
0.29793,-0.10317,3.37657
0.31028,-0.29363,-19.1527
-0.13169,0.15768,-3.25960
0.39774,-0.34975,-3.30979
1.40540,-0.41727,-0.51882
-0.50754,-0.08177,-22.1532
0.11052,0.34525,32.1299
-0.18466,-0.14247,0.34565
-0.06296,-0.87232,-21.7072
0.17335,-0.10145,1.07659
-0.18512,0.04453,-0.97992
-0.09033,-0.46163,-0.48916
-0.43031,0.36006,-1.34052
-0.38768,-0.40475,-3.04966
0.03177,-0.04103,8.74632
0.16063,0.79990,4.57409
-0.38577,-0.68424,-14.4203
0.17281,-0.64845,9.17135
0.45214,-0.81678,4.89196
0.08878,-0.33239,-2.64871
-0.11613,-0.18898,-22.6347
-0.40340,-0.35736,-24.0977
-0.28918,-0.93626,-27.0733
-0.18488,0.17848,-3.91517
0.39227,0.17797,-2.33858
0.50874,-0.58853,-7.61366
0.97512,0.06933,13.4637
0.20070,-1.05422,17.9225
0.35162,-0.19333,10.0340
-0.19797,-0.09985,8.07788
0.62406,0.20234,-6.99761
0.05393,0.10118,-0.21991
-0.58312,0.06366,1.71568
0.14388,0.01426,14.9150
-0.85619,-0.07820,-4.62436
-0.47963,0.03530,-7.91101
0.61815,-0.11372,-17.9263
-0.58402,0.76504,11.2941
-0.13379,-0.38181,12.1703
0.41034,-0.34534,-34.8116
-0.09298,-0.27353,17.1816
-0.63666,-0.20523,-36.3343
0.38517,-0.38002,11.6986
-0.13964,0.22548,4.68653
-0.47628,-0.42716,0.22356
0.54997,-0.26225,16.9693
-0.57755,-0.83839,14.0215
0.47733,-0.49144,-22.6944
-0.08997,0.06318,-4.53232
0.49838,0.21813,-10.2408
0.00909,-0.03629,1.24331
-0.53053,0.44314,10.7090
0.53805,0.04728,9.39811
0.09439,0.31424,-21.0146
0.51206,-0.14001,-15.8360
0.44941,-1.01451,18.0859
0.54858,-0.43713,-3.08446
0.41258,0.22235,-4.01950
-0.26296,0.26881,17.5047
-0.02517,0.27069,7.12297
0.09552,0.37956,-13.3634
-0.04547,0.21941,3.88057
1.60624,-0.57377,-1.44693
-0.12019,0.65800,-2.48238
-0.23128,0.25084,5.24028
-0.64284,-0.03591,-15.6258
-0.30421,-0.38451,-16.4365
-0.75956,0.12678,3.39187
0.31925,-0.71295,-6.06351
0.77571,-0.49178,8.08756
0.30588,-0.37887,-6.07215
-0.38087,0.01232,-1.93529
-0.20003,0.09471,-12.0550
-0.20852,-0.46138,-12.7141
0.68715,0.63440,2.61554
-0.20852,-0.46138,-12.7141
0.51902,-0.23788,-29.8284
0.97433,-0.01565,-18.2420
-0.16959,-0.11768,3.33476
0.48880,-0.87068,13.0311
-0.20800,0.06013,20.6194
-0.52864,0.51215,4.39583
-0.18080,0.72418,-17.8025
0.08601,0.08056,-11.8209
0.56406,0.63350,-23.1948
0.66052,0.59872,-12.8410
-0.44698,-0.21521,-20.3580
0.79073,-0.63310,4.52513
0.57052,-0.37011,13.1877
-0.01743,-0.46969,9.29808
0.48181,0.71064,-8.63328
-0.06325,0.00172,3.43437
0.33228,-0.22597,-24.8627
0.05393,0.10118,-0.21991
-0.15265,0.07307,-2.35139
0.37019,-0.32993,16.9039
-0.08086,0.11251,9.05319
-0.34913,-0.21366,14.5702
-0.33680,-0.60754,-24.6719
0.41920,-0.35627,1.26588
0.77688,0.02660,-14.6650
-0.46839,-0.09653,-9.27713
0.30910,0.16843,6.68686
-0.11835,0.42458,-2.89133
-0.31039,-0.16599,17.0197
0.40166,0.18250,-6.01934
0.08294,1.29784,8.00343
-0.22113,0.43153,17.0016
-0.12116,-0.23484,-4.83755
0.25105,-0.72600,-12.1879
0.75102,-0.01776,-0.39152
0.09601,0.35529,32.8993
0.11406,-0.08293,-10.8151
-0.67769,0.27925,-19.3241
-0.01593,-0.36721,17.4692
-0.23490,-0.34295,13.0535
0.34985,0.25681,16.5316
0.16075,-0.06893,2.31259
0.23551,-0.02848,-7.79061
0.46845,-0.12276,-26.6810
0.29396,-0.35270,-3.57356
0.38617,-0.07689,-1.65125
0.34141,-0.15481,-9.00182
-0.60189,-0.79927,-2.95698
0.16881,0.29359,2.54187
-0.36705,0.30948,-11.9003
0.39234,0.13793,8.83001
0.10980,-0.19879,4.18653
-0.57349,-0.03882,-32.4777
0.15067,-0.20701,6.59482
0.48099,-0.07773,10.5682
-0.89230,-0.04869,3.58382
-0.61340,0.12436,-3.42787
0.27844,-0.38732,-1.50910
0.03859,-0.13231,-7.83159
0.01649,0.03180,-1.27974
0.14381,-0.28924,2.10232
-0.28890,-0.52511,24.9075
0.79605,-0.61527,-2.31820
0.37633,0.37452,-8.40898
0.04761,-0.16901,-31.1300
-0.20367,-0.09815,-11.3954
-0.10190,0.25952,-22.9476
0.23386,0.30672,-23.6005
-0.04873,-0.02529,-11.2113
0.01361,-0.22482,2.43150
-0.19140,-0.07129,-41.0199
0.33345,-0.39634,-0.37547
-0.61435,-0.14698,9.86408
0.19003,0.12957,-24.8306
0.69913,0.30684,10.4983
0.04404,-0.28198,-21.4794
0.59030,0.52866,-11.9340
-0.47004,-0.61172,-22.8796
-0.13379,-0.38181,12.1703
0.26061,-0.19736,2.70272
0.23359,-0.41074,-3.08384
-0.46812,-0.44377,-18.5152
0.46709,-0.32356,19.5674
0.46726,0.03321,19.7867
-0.28348,0.00579,-15.1546
0.39600,-0.21228,27.6577
0.13704,-0.60418,3.86769
0.77688,0.02660,-14.6650
-0.00603,-1.17997,2.01351
-0.32221,0.19690,-11.0322
-0.49629,0.35127,9.00320
-0.06296,-0.87232,-21.7072
0.58740,-0.36577,-7.82001
-0.31880,-0.71002,-16.8267
0.17682,-0.01556,4.83469
-0.02842,0.07094,0.12291
0.66650,-0.21850,19.8316
0.13058,-0.07000,2.50112
-0.47628,-0.42716,0.22356
-0.75948,0.39491,-3.85037
0.53501,-0.01729,9.02193
-0.34835,-0.72033,-17.5513
0.40308,0.34394,-0.75634
0.03879,0.03094,3.41166
-0.51612,0.02736,-12.8516
1.07711,0.28939,23.6456
-0.02792,0.63127,-13.7506
-0.50265,0.59667,-8.61432
0.70910,-0.81152,-28.1339
0.10340,0.61534,-11.5085
0.36457,-0.65192,-15.3842
0.01184,-0.11702,12.5686
0.15053,0.27179,1.67489
0.19477,0.10716,-4.27375
-0.52283,0.42093,-11.0178
1.13543,-0.50015,-7.50815
-0.24799,-0.35497,25.3327
0.21773,-0.19162,0.26327
0.25138,-0.12647,4.50072
-0.59901,-0.59373,14.2437
-0.47061,0.44290,-10.1422
0.49257,-0.26633,16.3614
0.10135,-0.97156,14.6581
0.09942,-0.44849,-13.1849
0.00357,0.45939,-1.21687
-1.09031,-0.09782,13.7532
-0.74751,-0.08036,13.8906
-0.40431,-0.11620,13.0205
-0.34883,0.01583,2.95135
0.38328,0.40456,12.7960
-0.40215,-0.42087,32.3141
-0.70725,0.16515,13.0869
0.90423,-0.59849,12.9311
0.02624,-0.62111,21.7141
0.26721,0.86230,10.4875
0.14381,-0.28924,2.10232
0.03638,-0.72721,-5.07428
0.33788,0.65527,-5.01925
0.26468,-0.03791,-19.4950
0.13384,-0.17391,-3.20540
0.51476,0.08349,13.1382
0.29504,-0.07240,16.3565
0.77233,-0.84280,-10.2058
0.47277,-0.14593,12.7650
0.67676,0.16856,-9.02955
0.07307,-0.06281,-9.08027
0.43336,0.03338,3.07119
-0.18118,-0.69425,13.9325
-0.50840,0.85408,-7.07744
-0.14841,-0.12345,0.23334
0.47993,0.35366,-12.9984
0.14381,-0.28924,2.10232
-0.26613,-0.04222,-3.22723
-0.18347,0.40378,-6.98733
-0.14588,-0.83802,10.2958
-0.02172,0.01441,12.3359
-0.08670,-0.15380,-0.95110
-1.35261,-0.04586,4.65789
0.76947,0.43991,18.7277
-0.70474,0.25809,12.5339
0.14747,-0.01663,-17.5137
-0.49265,0.54174,11.1871
0.29899,-0.16694,9.77440
0.02707,-0.37520,16.4482
-0.05947,0.07880,18.9086
0.25613,-0.61339,15.2230
0.08051,-0.57863,0.68327
0.32507,0.43034,-12.8505
0.13136,0.02185,-7.83110
-0.81925,-0.89848,-18.9453
0.05575,-0.07440,9.14030
-0.75497,-0.58103,25.3813
-0.04422,0.49408,-7.23855
0.15812,-0.34051,-9.85504
1.15574,-0.35258,17.8736
0.40087,-0.03330,14.3612
-0.11835,0.42458,-2.89133
0.26709,-0.25391,9.50863
0.35159,-1.01542,-12.6518
0.42348,-0.64317,-22.3380
0.21387,0.54164,-7.02628
-0.03389,-0.14584,6.97513
-0.16689,0.01249,21.1714
-0.13951,-0.88877,-5.59440
0.52001,-0.12491,6.15837
-0.11403,0.99456,4.33842
-0.18512,0.04453,-0.97992
-0.20959,0.16340,-3.03940
-0.16790,-0.50986,1.80416
-0.30462,0.28606,6.91407
-0.11361,-0.94925,41.7752
-0.37128,0.47366,-14.1702
-0.72870,0.15370,9.92559
-0.15240,-0.10356,-4.73404
-0.43136,-0.16134,-10.4188
-0.67344,0.07262,-1.21353
0.31690,-0.13881,18.1822
0.14877,-0.34072,-9.18165
-0.25075,-0.53424,-8.45895
0.05720,-0.59251,-5.38271
0.31976,0.17117,-9.64404
-0.76972,-0.38960,-2.04868
-0.85303,0.22071,27.0856
-0.36626,-0.43614,27.0195
-0.56853,-0.69360,-22.7482
0.23169,-0.20237,15.7874
0.58956,0.19715,-6.58647
0.31578,-0.08126,8.48687
0.16390,-0.07096,17.1609
1.45939,-0.18603,-7.96801
0.26545,0.52607,6.43922
0.53549,-0.52014,22.1460
0.78281,-0.01004,-3.81321
0.62282,0.13944,-2.46003
0.29203,0.13996,1.84438
-0.00796,0.17176,-3.17770
0.14992,-0.08285,-2.91065
0.34500,-1.08718,-2.78296
-0.20193,0.07970,-10.6228
0.70593,-0.33699,-21.0094
-0.14538,0.25718,7.23702
0.31550,-0.49621,-5.73241
-0.42973,-0.12951,-6.58619
0.32507,0.43034,-12.8505
-0.25847,0.30951,-1.54522
-0.18560,-0.21745,17.4434
-0.16291,-0.09637,-11.0087
-0.08653,-0.59682,-3.66130
0.85941,-0.06609,-9.69787
0.04541,-0.26987,-19.0910
-0.26710,-0.80176,7.51476
-0.12167,0.68994,-13.7189
0.30113,-0.42308,-2.05050
-0.22070,0.74194,-3.27193
0.29953,-0.15934,9.67324
-0.27616,-0.31671,16.5772
-1.20044,-0.81334,-9.91943
0.14425,0.10366,-3.40232
0.59708,-0.34343,-2.73017
-0.14363,-1.30092,-16.6018
0.09708,0.33421,18.9703
-0.06209,0.67262,-6.80614
0.05180,0.32715,1.26457
0.02238,-0.20352,-8.80910
0.36172,0.21450,23.7130
-0.32633,-0.31148,13.8782
-0.65573,-0.14466,-3.56057
0.28167,-0.07310,-0.60946
-0.35423,-0.23831,-0.84886
0.82205,0.05702,34.3124
-0.01533,0.07336,-8.08951
